999,999,999,999,999,999,999,999,999,1000,1000,999,1000,999,999,999,999,999,999,1000,1000,1000,999,1000,1000,999,999,999,999,999,1000,1000,1000,1000,1001,1001,1000,1001,1000,1002,1001,1002,1001,1001,1001,1000,1000,1000,1000,1000,1000,1000,1000,1000,1000,1000,1000,1001,1001,1001,1000,1000,999,999,999,999,999,999,1000,1000,1000,1000,1000,1000,1000,1000,1000,1000,1001,1000,1000,1000,1000,999,1000,999,999,1000,1000,999,1001,1001,1001,1001,1001,1001,1001,1001,1000,1001,1001,1001,1001,1001,1001,1002,1002,1001,1001,1002,1001,1001,1001,1002,1002,1002,1002,1002,1002,1002,1002,1002,1001,1002,1002,1002,1002,1001,1002,1002,1003,1004,1006,1007,1006,1006,1007,1009,1009,1009,1009,1010,1010,1010,1011,1012,1013,1013,1013,1014,1014,1014,1015,1015,1015,1016,1016,1016,1015,1015,1014,1014,1040,1039,1039,1040,1040,1039,1039,1039,1039,1039,1039,1038,1038,1038,1038,1038,1039,1038,1038,1038,1038,1038,1038,1038,1038,1038,1038,1038,1038,1040,1041,1041,1041,1042,1042,1042,1042,1043,1042,1041,1041,1041,1041,1040,1040,1039,1039,1039,1039,1039,1039,1039,1039,1040,1040,1041,1041,1041,1041,1041,1041,2047,2047,2047,2047,2047,2047,2047,2047,2047,2047,2047,2047,2047,2047,2047,2047,2047,2047,2047,1041,1041,1039,1039,1039,1039,1038,1038,1040,1040,1040,1041,1041,1041,1039,1039,1039,1038,1038,1039,1039,1039,1039,1041,1041,1040,1040,1040,1038,1038,1038,1038,1038,1038,1038,1038,1041,1042,1041,1041,1041,1041,1041,1041,1041,1040,1038,1038,1038,1037,1036,2047,2047,2047,2047,2047,2047,2047,1042,1042,1042,1042,1041,1039,2047,2047,2047,2047,2047,2047,2047,2047,2047,2047,2047,2047,2047,1040,1040,1040,1040,1040,1040,1044,1040,2047,2047,2047,2047,2047,2047,1048,1047,1047,1034,1048,1047,1047,1043,1045,1046,2047,2047,2047,2047,2047,2047,2047,2047,2047,1043,1040,1043,1043,1043,1044,1043,1043,1043,1043,1042,1042,1041,1041,1042,1043,1041,1041,1041,1038,2047,1040,2047,2047,2047,2047,2047,2047,2047,2047,2047,2047,2047,2047,1042,1043,1043,1042,1042,2047,2047,2047,2047,2047,2047,2047,2047,2047,2047,1015,1015,1015,1016,1017,1016,1016,1016,1016,1016,1016,1016,1016,1016,1016,1016,1016,1016,1016,1016,1015,1015,1016,1016,1016,1016,1016,1017,1017,1017,1016,1017,1017,1017,1018,1018,1018,1017,1017,1016,1016,1016,1016,1017,1016,1016,1016,1017,1017,1017,1016,1016,1016,1016,1016,1016,1016,1016,1015,1016,1015,1015,1015,1014,1015,1015,1015,1015,1016,1016,1016,1016,1016,1016,1016,1016,1016,1016,1017,1016,1017,1016,1017,1017,1017,1017,1017,1017,1017,1017,1017,1017,1016,1015,1015,1014,1013,1012,1012,1012,1012,1011,1011,1011,1011,1010,1010,1009,1009,1008,1008,1009,1008,1008,1008,1008,1007,1007,1006,1006,1005,1005,1005,1004,1004,1003,1003,1003,1003,1002,1001,1001,1000,1000,1000,1000,999,999,999,999,999,999,998,998,998,998,997,997,997,996,996,996,996,995,995,995,995,995,994,994,2047,994,2047,2047,2047,975,975,975,975,975,975,974,973,973,972,972,972,972,972,971,971,971,971,970,970,970,969,968,967,967,967,967,965,965,965,964,964,964,964,964,963,961,960,960,960,959,959,959,958,957,957,957,956,956,956,956,955,956,956,955,954,955,954,2047,2047,2047,2047,2047,2047,2047,2047,2047,2047,2047,2047,2047,2047,2047,2047
999,998,998,998,999,999,999,999,999,1000,1000,999,1000,999,999,999,999,999,999,999,999,999,999,999,999,999,999,999,999,999,1000,1000,1000,1000,1001,1000,1000,1001,1001,1002,1001,1001,1001,1000,1000,1000,1000,1000,999,999,999,1000,1000,1000,1000,1000,1001,1000,1000,1000,999,999,999,999,999,999,999,1000,1000,1000,1000,1000,1000,1000,1000,1000,1000,1000,1001,1000,1000,1001,1000,1000,1000,1000,1000,1000,1001,1000,1002,1001,1001,1001,1000,1001,1000,1000,999,1000,1000,1001,1001,1001,1001,1002,1001,1001,1001,1002,1002,1001,1001,1002,1002,1002,1002,1002,1002,1002,1002,1002,1001,1002,1002,1002,1003,1003,1002,1004,1004,1006,1006,1007,1006,1007,1007,1007,1009,1009,1009,1009,1010,1010,1010,1012,1012,1013,1014,1014,1014,1014,1014,1015,1015,1016,1016,1016,1016,1015,1015,1040,1040,1039,1039,1040,1040,1039,1039,1039,1039,1038,1039,1038,1038,1038,1038,1038,1038,1038,1038,1038,1038,1038,1037,1038,1037,1037,1038,1041,1041,1040,1041,1042,1042,1042,1042,1042,1043,1043,1042,1042,1042,1042,1041,1041,1040,1040,1040,1039,1039,1039,1040,1040,1040,1040,1041,1041,1041,1041,1042,1041,1041,2047,2047,2047,2047,2047,2047,2047,2047,2047,2047,2047,2047,2047,2047,2047,2047,2047,2047,2047,1041,1041,1038,1038,1038,1038,1038,1038,1040,1039,1040,1041,1041,1041,1039,1039,1039,1038,1038,1039,1039,1039,1039,1038,1041,1040,1039,1039,1038,1038,1038,1038,1038,1038,1038,1037,1041,1042,1042,1042,1042,1042,1041,1041,1041,1040,1039,1039,1038,1038,2047,2047,2047,2047,2047,2047,2047,1042,1042,1042,1042,1041,1038,1038,2047,2047,2047,2047,2047,2047,2047,2047,2047,2047,2047,1039,1038,1038,1039,1039,1037,1037,1037,2047,2047,2047,2047,2047,2047,2047,2047,1047,1047,1045,1037,1047,1045,1044,1042,1042,1042,1043,1042,1042,1042,2047,2047,1044,2047,2047,1044,1043,1043,1043,1043,1044,1043,1042,1043,1042,1042,1039,1038,1038,1039,1039,1041,1040,1040,1038,1038,1040,1040,1040,2047,2047,2047,2047,2047,2047,2047,2047,2047,2047,1043,1044,1044,1043,1039,2047,2047,2047,2047,2047,2047,2047,2047,2047,2047,1015,1015,1015,1016,1016,1016,1016,1016,1016,1016,1016,1016,1016,1016,1016,1016,1016,1016,1016,1016,1016,1016,1016,1016,1016,1016,1016,1017,1017,1017,1016,1017,1017,1017,1018,1017,1017,1017,1016,1016,1016,1016,1016,1016,1016,1016,1017,1017,1017,1017,1016,1016,1016,1017,1016,1016,1016,1016,1015,1015,1015,1014,1014,1014,1014,1015,1015,1015,1016,1016,1016,1016,1016,1017,1017,1016,1016,1016,1017,1017,1017,1017,1017,1017,1017,1017,1017,1017,1017,1017,1017,1016,1016,1015,1015,1014,1013,1012,1012,1012,1012,1011,1011,1011,1011,1011,1010,1010,1009,1008,1008,1009,1008,1008,1008,1008,1007,1007,1006,1006,1005,1005,1005,1004,1004,1004,1004,1003,1003,1002,1001,1001,1000,1000,1000,1000,999,999,999,999,999,998,998,998,998,998,997,997,997,996,996,996,995,995,995,995,995,994,994,994,994,2047,994,2047,975,975,975,975,975,975,975,974,973,973,972,972,972,972,972,971,971,971,971,970,970,970,969,968,967,967,967,967,965,965,965,964,964,964,964,964,963,961,960,960,960,959,959,959,958,957,957,957,956,956,956,956,955,956,956,955,2047,2047,2047,2047,2047,2047,2047,2047,2047,2047,2047,2047,2047,2047,2047,2047,2047,2047,2047
999,999,998,998,998,999,999,999,999,999,999,999,999,999,999,999,999,999,999,999,999,999,999,999,999,999,999,999,999,999,1000,1000,1000,1000,1001,1000,1001,1001,1001,1002,1001,1001,1001,1000,1000,1000,1000,1000,999,999,999,1000,1000,1000,1000,1000,1000,1001,1000,999,999,999,999,999,999,999,999,1000,1000,1000,1000,1000,1000,1000,1000,1000,1000,1000,1001,1000,1000,1001,1000,1000,1000,1000,1000,1000,1001,1000,1001,1001,1001,1000,1000,1000,1000,1000,1000,1000,1001,1001,1001,1001,1002,1002,1002,1001,1001,1002,1002,1002,1002,1002,1002,1002,1002,1002,1002,1002,1002,1002,1001,1002,1002,1002,1002,1003,1003,1004,1004,1005,1006,1006,1006,1006,1007,1007,1007,1008,1009,1010,1010,1011,1011,1012,1013,1013,1013,1014,1013,1014,1014,1015,1015,1016,1016,1016,1016,1016,1016,1040,1040,1040,1040,1040,1040,1039,1039,1039,1039,1039,1039,1039,1038,1039,1039,1039,1039,1038,1038,1040,1040,1038,1038,1038,1037,1037,1040,1041,1041,1040,1041,1042,1042,1042,1042,1042,1043,1043,1042,1042,1042,1042,1041,1041,1040,1040,1040,1040,1039,1039,1040,1040,1041,1041,1041,1041,1042,1041,1042,1041,1041,2047,2047,2047,2047,2047,2047,2047,2047,2047,2047,2047,2047,2047,2047,2047,2047,2047,2047,2047,2047,2047,2047,2047,1041,1042,2047,2047,1042,1040,1040,1041,1041,1041,1040,1040,1039,1039,1039,1039,1039,1040,1039,1039,1040,1039,1039,1038,1038,1037,1038,1038,1038,1038,1037,1037,1041,1042,1042,1042,1041,1042,1041,1041,1041,1041,1039,1040,1040,1038,2047,2047,2047,2047,2047,2047,1040,1042,1042,1042,1042,1041,1040,1038,1041,2047,2047,2047,2047,2047,2047,2047,2047,1042,1042,1039,1039,1038,1037,1037,1037,1037,1037,2047,2047,2047,2047,2047,2047,2047,2047,1045,1044,1043,1038,1040,1040,1042,1042,1041,1042,1042,1042,1042,1042,1043,1043,1043,1043,1043,1044,1041,1041,1041,1043,1044,1043,1042,1039,1039,1039,1039,1038,1039,1039,1039,1040,1041,1040,1039,1039,1040,1040,1040,1041,2047,2047,2047,2047,2047,2047,2047,2047,1041,1041,1044,1044,1039,1038,1038,2047,2047,2047,2047,2047,2047,2047,2047,2047,2047,2047,1016,1016,1017,1016,1016,1016,1016,1016,1016,1016,1016,1016,1016,1016,1016,1016,1016,1016,1016,1016,1016,1016,1016,1017,1016,1017,1017,1016,1016,1016,1016,1016,1017,1017,1016,1016,1016,1016,1016,1016,1016,1016,1016,1016,1016,1017,1017,1016,1016,1016,1016,1017,1016,1016,1016,1016,1015,1015,1015,1015,1014,1014,1014,1015,1015,1015,1016,1016,1016,1016,1017,1017,1017,1017,1017,1017,1017,1017,1017,1017,1017,1017,1017,1017,1017,1017,1017,1017,1017,1016,1016,1015,1015,1014,1013,1013,1012,1012,1012,1011,1011,1011,1011,1011,1010,1010,1009,1009,1008,1009,1009,1008,1008,1008,1007,1007,1006,1006,1005,1005,1005,1004,1004,1004,1004,1003,1003,1002,1001,1001,1000,1000,1000,1000,999,999,999,999,999,998,998,998,998,998,997,997,996,996,996,996,995,995,995,995,995,994,993,993,994,994,994,993,2047,975,975,975,975,975,974,974,973,973,972,972,972,972,972,971,971,971,971,970,970,970,969,968,968,967,967,967,966,965,965,964,964,964,964,963,962,961,960,960,959,959,959,958,958,958,957,957,956,956,2047,2047,2047,2047,2047,2047,2047,2047,2047,2047,2047,2047,2047,2047,2047,2047,2047,2047,2047,2047,2047,2047,2047,2047,2047
999,999,999,999,998,999,999,999,999,999,999,999,999,999,999,999,999,999,999,999,999,999,999,999,999,999,999,999,999,999,999,999,1000,1000,1000,1000,1000,1001,1001,1001,1000,1001,1001,1000,999,999,999,999,999,999,999,1000,1000,1000,1000,1000,1001,1001,1001,1000,1000,999,999,999,999,999,999,1001,1001,1000,1000,1000,1000,1000,1000,1000,1000,1001,1000,1000,1000,1001,999,999,999,999,1000,1000,1000,1000,1001,1001,1000,1000,1000,1000,1000,1000,1000,1001,1001,1002,1002,1002,1002,1002,1002,1001,1001,1001,1001,1001,1001,1002,1002,1002,1002,1002,1002,1002,1002,1002,1001,1002,1002,1002,1002,1003,1003,1003,1004,1004,1005,1006,1006,1006,1007,1007,1007,1008,1009,1010,1011,1012,1012,1013,1013,1013,1014,1014,1014,1014,1014,1015,1015,1015,1016,1016,1016,1016,1041,1041,1041,1041,1040,1041,1041,1040,1039,1039,1040,1039,1038,1038,1038,1038,1039,1039,1039,1038,1040,1041,1041,1041,1041,1040,2047,2047,1040,2047,1040,1040,1041,1041,1042,1042,1042,1042,1043,1043,1042,1042,1042,1042,1042,1041,1041,1041,1041,1041,1040,1040,1040,1040,1041,1041,1041,1041,1041,1041,1041,1041,1041,2047,2047,2047,2047,2047,2047,2047,2047,2047,2047,2047,2047,2047,2047,2047,2047,2047,2047,1041,1041,1041,2047,2047,2047,2047,2047,2047,1042,1041,1040,1041,1041,1041,1041,1041,1040,1039,1039,1039,1039,1040,1039,1039,1040,1039,1038,1038,1038,1038,1038,1038,1038,1038,1038,1038,1042,1042,1042,1042,1042,1042,1042,1041,1041,1041,1039,1040,1040,1038,2047,2047,2047,2047,2047,2047,1040,1040,1042,1042,1042,1041,1038,1038,1038,2047,2047,2047,2047,2047,2047,2047,2047,1042,1041,1040,1039,1039,1038,1039,1038,1038,1039,1039,1040,2047,2047,2047,2047,2047,2047,1042,1042,1042,1037,1038,1039,1042,1041,1038,1039,1041,1041,1041,1042,1043,1043,1043,1042,1041,1041,1040,1041,1042,1042,1043,1042,1042,1042,1042,1039,1039,1038,1038,1039,1040,1041,1041,1040,1040,1040,1040,1040,1040,1040,2047,2047,2047,2047,2047,2047,1043,1041,1041,1040,1038,1038,1038,1038,1038,2047,2047,2047,2047,2047,2047,2047,2047,2047,2047,1017,1017,1017,1017,1016,1016,1016,1016,1016,1016,1016,1016,1016,1016,1016,1016,1016,1016,1016,1016,1016,1016,1016,1017,1017,1016,1017,1017,1016,1015,1015,1016,1015,1016,1016,1016,1016,1016,1016,1016,1016,1016,1016,1016,1016,1017,1017,1017,1017,1017,1016,1017,1017,1016,1016,1016,1016,1016,1016,1015,1015,1014,1014,1014,1015,1015,1015,1016,1016,1016,1017,1017,1017,1017,1017,1017,1016,1017,1017,1017,1016,1016,1016,1017,1017,1017,1017,1017,1017,1017,1016,1016,1015,1015,1014,1013,1013,1013,1012,1012,1011,1011,1011,1011,1010,1010,1010,1009,1008,1008,1009,1008,1008,1008,1007,1007,1006,1005,1005,1005,1005,1005,1004,1004,1004,1004,1004,1003,1002,1002,1001,1001,1000,1000,1000,999,999,999,999,999,998,998,998,998,998,998,997,997,997,996,996,995,995,995,994,994,994,993,993,993,993,993,993,2047,975,975,975,975,975,975,974,974,973,973,972,972,972,972,971,971,971,971,971,970,970,969,968,968,967,967,966,966,965,965,964,964,964,964,964,963,961,960,960,959,959,958,958,958,957,958,957,2047,2047,2047,2047,2047,2047,2047,2047,2047,2047,2047,2047,2047,2047,2047,2047,2047,2047,2047,2047,2047,2047,2047,2047,2047,2047,2047
999,999,999,999,999,999,999,999,999,999,999,999,999,999,999,999,999,999,999,999,999,999,999,999,999,999,999,1000,999,999,999,1000,1000,1000,1000,1000,1000,1001,1000,1000,999,1000,1000,1000,999,999,999,999,999,999,999,1000,999,1000,1000,1000,1000,1000,1000,999,999,1000,1000,1000,999,1000,1000,1001,1001,1000,1000,999,1000,999,1000,999,1000,1000,1000,1000,1000,1000,999,999,1000,1000,1000,1001,1000,1000,1001,1001,1000,1000,1000,1000,1000,1000,1000,1001,1002,1002,1002,1002,1002,1002,1001,1001,1000,1001,1001,1001,1001,1002,1002,1002,1002,1002,1002,1002,1002,1001,1001,1001,1002,1002,1002,1003,1003,1003,1004,1004,1005,1006,1007,1006,1007,1007,1009,1010,1010,1010,1011,1012,1012,1013,1013,1013,1014,1014,1014,1014,1014,1015,1015,1016,1016,1016,1016,1016,1041,1041,1041,1041,1041,1040,1040,1040,1039,1039,1040,1039,1040,1039,1038,1039,1039,1039,1039,1038,1039,1040,1041,1041,1041,1041,1041,2047,2047,2047,1040,1041,1041,1041,1042,1041,1042,1042,1042,1042,1042,1042,1042,1042,1041,1041,1041,1041,1041,1041,1041,1041,1041,1041,1041,1041,1041,1041,1041,1041,1041,1041,1041,1041,1042,2047,2047,2047,2047,1042,1042,1042,2047,2047,2047,2047,2047,2047,2047,2047,1041,1041,1041,1041,2047,2047,2047,2047,2047,2047,1041,1040,1040,1041,1041,1041,1041,1041,1040,1041,1041,1040,1041,1041,1040,1039,1040,1039,1038,1039,1038,1038,1038,1038,1038,1038,1038,1038,1042,1042,1042,1041,1041,1042,1042,1041,1041,1041,1041,2047,2047,2047,2047,2047,2047,2047,2047,2047,1042,1041,1042,1042,1042,1041,1040,1041,1041,2047,2047,2047,2047,2047,2047,2047,1038,1041,1041,1040,1039,1040,1037,1037,1039,1039,1039,1040,1040,1039,2047,1038,2047,1037,1037,1037,1037,1038,1038,1038,1039,1039,1041,1038,1038,1038,1041,1041,1042,1043,1043,1043,1042,1041,1041,1041,1041,1042,1042,1042,1040,1040,1039,1039,1039,1039,1039,1039,1039,1040,1040,1041,1041,1040,1040,1040,1040,1040,1040,1041,1041,2047,1042,1043,1043,1043,1041,1040,1039,1038,1038,1038,1038,1037,2047,2047,2047,2047,2047,2047,2047,2047,2047,2047,1017,1017,1017,1017,1016,1016,1016,1016,1016,1016,1016,1016,1016,1016,1015,1015,1015,1016,1016,1016,1016,1016,1016,1017,1017,1016,1016,1016,1016,1015,1015,1015,1015,1016,1016,1016,1016,1016,1016,1016,1016,1016,1016,1016,1016,1017,1017,1017,1017,1017,1017,1017,1017,1017,1017,1017,1016,1016,1016,1016,1016,1015,1014,1014,1015,1015,1015,1015,1016,1016,1017,1017,1017,1017,1017,1016,1016,1016,1016,1016,1016,1016,1016,1016,1016,1016,1017,1017,1017,1016,1016,1016,1015,1015,1014,1013,1013,1013,1012,1012,1011,1011,1011,1010,1010,1009,1009,1009,1008,1008,1008,1008,1008,1007,1007,1006,1006,1005,1005,1005,1005,1005,1004,1004,1004,1004,1004,1003,1003,1002,1001,1001,1000,1000,1000,1000,999,999,999,999,999,998,998,998,998,998,998,996,997,996,996,995,995,994,994,994,994,993,993,994,993,993,993,2047,974,974,975,975,975,975,974,974,973,973,972,972,972,972,971,971,971,971,971,970,970,969,968,968,967,967,967,966,965,965,965,964,964,964,964,963,962,960,959,959,958,958,958,958,957,957,957,2047,2047,2047,2047,2047,2047,2047,2047,2047,2047,2047,2047,2047,2047,2047,2047,2047,2047,2047,2047,2047,2047,2047,2047,2047,2047,2047
999,999,999,999,999,999,999,999,999,999,999,999,999,999,999,999,999,999,999,999,999,999,999,1000,999,999,999,999,999,999,999,999,1000,1000,1000,999,1000,1000,1000,1000,999,999,999,999,999,999,999,999,999,999,999,1000,999,1000,1000,1000,1000,1000,1000,999,999,1000,1000,1000,1000,1000,1000,1001,1001,1000,1000,1000,1000,1000,1000,999,999,1000,1001,1000,1000,1001,1001,1001,1000,1000,1000,1000,1000,1000,1001,1001,1000,1000,1000,1001,1001,1001,1001,1001,1002,1002,1002,1002,1001,1001,1000,1000,1000,1000,1000,1000,1001,1002,1002,1002,1002,1002,1002,1002,1002,1002,1001,1002,1002,1002,1002,1002,1003,1003,1004,1004,1005,1006,1006,1006,1007,1007,1008,1008,1010,1011,1011,1012,1012,1013,1013,1013,1014,1014,1014,1014,1014,1015,1015,1015,1015,1016,1016,2047,1041,1041,1041,1041,1040,1039,1040,1039,1039,1039,1039,1039,1040,1039,1038,1039,1039,1039,1039,1039,1040,1040,1041,1041,1041,2047,2047,2047,2047,2047,2047,2047,1041,1041,1041,1041,1041,1042,1042,1041,1040,1040,1041,1042,1041,1041,1041,1041,1041,1041,1040,1040,1040,1042,1041,1041,1041,1041,1041,1041,1042,1041,1041,1042,1041,1042,1042,2047,1042,1042,1042,1042,1041,1044,2047,2047,2047,2047,2047,2047,1041,1041,1041,1041,2047,2047,2047,2047,2047,1041,1041,1041,1040,1041,1041,1041,1041,1042,1041,1041,1042,1042,1042,1041,1040,1040,1040,1039,1039,1039,1039,1038,1039,1039,1039,1039,1038,1038,1041,1041,1041,1041,1041,1041,1042,1042,1042,1042,1042,2047,2047,2047,2047,2047,2047,2047,2047,1041,1041,1042,1042,1042,1042,1041,1041,1041,1040,1038,1038,2047,2047,1038,1038,1038,1039,1042,1041,1041,1040,1040,1038,1038,1039,1038,1039,1039,1039,1039,2047,1038,1037,1037,1037,1038,1038,1038,1039,1042,1040,1042,1041,1038,1039,1038,1041,1041,1041,1041,1042,1041,1041,1041,1041,1041,1041,1041,1040,1040,1040,1040,1039,1039,1039,1039,1039,1039,1039,1040,1040,1041,1041,1040,1041,1040,1040,1040,1040,1040,1041,1041,1041,1041,1042,1041,1040,1040,1039,1037,1037,1037,1037,1037,2047,2047,2047,2047,2047,2047,2047,2047,2047,1016,1018,1017,1016,1016,1016,1016,1016,1016,1016,1016,1016,1016,1016,1016,1015,1016,1015,1015,1016,1016,1016,1016,1016,1016,1016,1016,1016,1016,1016,1016,1016,1016,1015,1016,1016,1016,1015,1016,1016,1015,1016,1015,1015,1016,1016,1016,1016,1017,1017,1017,1017,1017,1017,1017,1017,1016,1016,1016,1016,1015,1015,1014,1014,1014,1014,1015,1015,1015,1015,1016,1016,1016,1017,1017,1017,1016,1016,1016,1016,1016,1016,1016,1016,1016,1016,1016,1017,1017,1017,1016,1016,1016,1015,1015,1014,1013,1013,1013,1012,1012,1011,1011,1011,1010,1010,1009,1009,1009,1008,1008,1008,1008,1008,1007,1007,1006,1006,1005,1005,1005,1005,1005,1004,1004,1004,1004,1004,1003,1003,1002,1001,1001,1001,1000,1000,1000,1000,999,999,999,999,999,998,998,998,998,998,998,997,997,996,996,995,995,994,994,994,993,993,993,993,992,992,992,974,974,976,975,975,975,975,974,973,973,972,972,971,972,971,971,971,971,971,970,970,968,968,967,967,967,966,966,965,965,965,964,964,964,963,963,962,960,959,958,957,957,957,957,957,2047,2047,2047,2047,2047,2047,2047,2047,2047,2047,2047,2047,2047,2047,2047,2047,2047,2047,2047,2047,2047,2047,2047,2047,2047,2047,2047,2047,2047
999,999,999,999,999,999,999,999,999,999,999,999,999,999,999,999,999,999,999,999,999,999,999,999,999,999,999,999,999,999,999,999,999,999,999,999,1000,999,999,999,999,999,999,999,999,999,999,999,999,999,999,1000,999,1000,1000,1000,1000,1000,1000,999,999,1000,1000,1000,1000,1000,1001,1001,1001,1001,1000,1000,1000,1000,999,999,999,1000,1000,1000,1000,1000,1000,1000,999,999,999,1000,1000,1000,1001,1001,1001,1001,1001,1001,1001,1001,1001,1001,1002,1002,1002,1001,1001,1001,1000,1000,1000,1000,1000,1000,1001,1002,1002,1002,1002,1002,1002,1002,1002,1002,1001,1002,1002,1002,1002,1002,1003,1003,1003,1004,1005,1005,1006,1006,1007,1007,1008,1008,1010,1010,1011,1011,1013,1013,1014,1013,1014,1014,1014,1014,1014,1015,1016,1016,1016,1016,1016,1041,1041,1041,1041,1041,1040,1040,1040,1039,1039,1039,1039,1039,1040,1039,1038,1039,1038,1039,1039,1039,1039,1040,1041,1041,1041,2047,2047,2047,2047,2047,2047,2047,1040,1041,1041,1041,1041,1041,1041,1041,1040,1040,1041,1042,1041,1041,1041,1041,1042,1041,1041,1041,1042,1042,1042,1042,1041,1041,1041,1041,1042,1041,1041,1041,1041,1041,1041,1042,1042,1042,1041,1042,1041,1043,2047,2047,2047,2047,2047,2047,2047,1041,1041,1041,1042,2047,2047,2047,2047,1040,1041,1041,1040,1041,1041,1041,1042,1042,1042,1043,1043,1043,1043,1042,1041,1040,1040,1039,1039,1040,1039,1039,1039,1039,1039,1039,1038,1038,1038,1041,1040,1040,1040,1041,1041,1041,1042,1042,2047,2047,1041,1041,1041,1041,1041,1041,1041,1041,1041,1042,1042,1042,1042,1041,1041,1041,1041,1039,1038,1038,1039,1038,1038,1038,1039,1041,1041,1041,1040,1040,1038,1039,1039,1039,1039,1039,1039,1039,1039,1038,1038,1038,1037,1038,1041,1040,1040,1041,1040,1041,1041,1041,1041,1040,1040,1040,1040,1041,1041,2047,2047,2047,2047,2047,2047,1040,1040,1040,1040,1040,1039,1039,1039,1039,1039,1039,1039,1040,1040,1041,1041,1040,1041,1040,1040,1040,1040,1040,1041,1041,1041,1041,1042,1042,1040,1040,1039,1037,1037,1037,1037,1037,1037,2047,2047,2047,2047,2047,2047,2047,2047,1017,1017,1016,1016,1016,1016,1016,1016,1016,1016,1016,1016,1016,1016,1016,1016,1016,1015,1016,1016,1016,1015,1016,1015,1016,1016,1015,1016,1016,1015,1015,1016,1016,1015,1016,1016,1015,1015,1015,1015,1015,1015,1015,1015,1016,1016,1016,1016,1016,1016,1016,1016,1016,1016,1016,1016,1016,1016,1016,1015,1015,1015,1015,1014,1014,1014,1015,1015,1015,1016,1016,1017,1017,1017,1017,1017,1016,1016,1016,1016,1016,1016,1016,1016,1016,1016,1016,1017,1016,1016,1016,1016,1016,1015,1015,1014,1013,1013,1013,1012,1012,1011,1011,1010,1010,1010,1010,1009,1009,1008,1008,1008,1008,1008,1007,1007,1006,1006,1005,1005,1005,1005,1005,1005,1004,1004,1004,1004,1003,1002,1002,1002,1001,1001,1001,1000,1000,1000,1000,999,999,999,999,998,998,998,998,998,997,997,997,996,996,995,995,995,994,994,993,994,993,992,992,992,992,975,975,975,975,976,975,975,974,973,973,972,972,972,971,971,971,971,971,971,970,970,968,968,967,967,967,966,966,966,966,965,965,965,964,964,963,963,961,960,958,958,957,957,2047,2047,2047,2047,2047,2047,2047,2047,2047,2047,2047,2047,2047,2047,2047,2047,2047,2047,2047,2047,2047,2047,2047,2047,2047,2047,2047,2047,2047,2047,2047
998,998,998,999,999,999,999,999,999,999,999,999,999,999,999,999,999,999,999,999,999,999,999,999,999,999,999,999,999,999,999,999,999,999,999,999,999,999,999,999,999,999,999,999,999,999,999,999,999,999,999,999,999,1000,1000,1000,1000,1000,1000,1000,999,1000,1000,1000,1000,1000,1001,1001,1001,1000,1000,999,999,999,999,999,999,999,999,999,999,999,1000,1000,1000,1000,1000,1001,1001,1000,1001,1001,1000,1000,1001,1001,1001,1001,1000,1001,1002,1002,1001,1001,1001,1001,1000,1000,1000,1000,1000,1000,1001,1001,1002,1002,1002,1002,1002,1002,1002,1002,1002,1002,1002,1002,1002,1002,1003,1003,1003,1004,1005,1006,1007,1006,1007,1007,1010,1010,1010,1011,1011,1011,1013,1013,1013,1013,1013,1014,1014,1014,1015,1015,1016,1017,1016,1016,1017,1041,1041,1041,1041,1041,1040,1039,1039,1039,1039,1039,1039,1039,1039,1039,1038,1038,1038,1038,1038,1038,1039,1040,1041,1041,1042,2047,2047,2047,2047,2047,2047,2047,1041,1041,1042,1042,1042,1041,1041,1041,1040,1040,1040,1041,1041,1041,1041,1041,1041,1041,1042,1041,1042,1043,1043,1042,1042,1041,1041,1041,1042,1041,1041,1041,1041,1041,1041,1041,1041,1042,1041,1042,1042,1043,2047,2047,2047,2047,2047,2047,2047,1042,1042,1042,1042,2047,2047,2047,2047,1041,1041,1041,1041,1042,1042,1042,1042,1042,1042,1042,1042,1042,1042,1041,1040,1040,1039,1038,1038,1040,1040,1040,1040,1039,1039,1039,1038,1038,1038,1040,1040,1040,1040,1040,1040,1040,1041,1041,2047,1042,2047,1042,1042,1041,1041,1041,1041,1041,1042,1042,1042,1042,1042,1041,1041,1041,1039,1039,1038,1038,1039,1038,1038,1039,1042,1042,1042,1041,1041,1040,1038,1038,1038,1038,1038,1039,1039,1039,1039,1038,1037,1037,1037,1038,1041,1041,1040,1041,1040,1040,1040,1040,1040,1038,1039,1039,1040,1040,1040,2047,2047,2047,2047,2047,2047,2047,1039,1040,1040,1040,1039,1039,1039,1040,1040,1040,1041,1041,1041,1041,1041,1042,1041,1040,1040,1040,1040,1040,1041,1041,1041,1041,1041,1042,1042,1040,1038,1037,1036,1037,1038,1037,1037,1037,1039,1039,1040,2047,2047,2047,1017,1017,1017,1016,1017,1016,1016,1016,1016,1016,1016,1016,1016,1016,1016,1016,1016,1016,1016,1016,1016,1016,1015,1016,1015,1015,1015,1015,1015,1015,1015,1015,1015,1016,1015,1016,1016,1015,1015,1015,1015,1015,1015,1015,1015,1015,1016,1016,1016,1016,1016,1016,1016,1016,1016,1016,1016,1016,1016,1016,1016,1016,1016,1015,1015,1015,1015,1015,1015,1016,1016,1017,1017,1017,1017,1017,1017,1016,1016,1016,1016,1016,1016,1016,1016,1016,1017,1017,1017,1016,1016,1016,1016,1016,1015,1015,1013,1013,1013,1013,1012,1012,1011,1011,1011,1011,1010,1010,1010,1009,1009,1008,1008,1008,1008,1007,1007,1007,1006,1006,1005,1005,1005,1005,1005,1004,1004,1004,1004,1003,1003,1003,1002,1002,1001,1001,1001,1000,1000,1000,1000,999,999,999,999,999,998,998,998,997,997,997,996,996,995,995,995,994,994,994,993,993,992,992,991,991,975,975,976,975,975,975,975,974,974,973,972,972,972,971,971,971,971,971,971,970,970,968,968,967,968,967,967,967,966,966,965,965,964,964,963,963,963,961,2047,2047,957,956,2047,2047,2047,2047,2047,2047,2047,2047,2047,2047,2047,2047,2047,2047,2047,2047,2047,2047,2047,2047,2047,2047,2047,2047,2047,2047,2047,2047,2047,2047,2047,2047
998,998,998,999,999,999,999,999,999,999,999,999,999,1000,1000,1000,999,999,998,998,998,999,998,999,999,999,999,999,999,999,999,999,999,999,999,999,999,999,999,999,999,999,999,999,999,999,999,999,999,999,999,999,999,1000,999,1000,1000,1000,1000,999,999,1000,1000,1000,1000,1000,1000,1000,1000,1000,999,999,999,999,999,999,999,999,999,999,1000,1000,1001,1001,1000,1000,1001,1001,1001,1001,1001,1001,1001,1001,1001,1001,1001,1001,1001,1001,1002,1002,1002,1002,1001,1001,1001,1001,1000,1000,1000,1000,1001,1001,1002,1002,1002,1002,1002,1002,1002,1002,1002,1001,1002,1001,1002,1002,1003,1003,1003,1004,1005,1006,1007,1007,1008,1009,1010,1010,1010,1010,1011,1011,1011,1013,1013,1013,1013,1014,1014,1014,1015,1016,1017,1017,1017,1017,1017,1017,1041,1041,1041,1041,1040,1039,1040,1039,1039,1039,1039,1040,1040,1040,1039,1039,1039,1039,1039,1040,1040,1040,1042,1042,1042,1042,1042,2047,2047,2047,2047,2047,1041,1041,1042,1042,1042,1041,1041,1040,1040,1040,1040,1040,1040,1041,1041,1041,1041,1042,1042,1041,1042,1042,1042,1042,1041,1041,1041,1041,1042,1041,1041,1041,1041,1041,1041,1042,1042,1042,1042,1042,1043,1043,2047,2047,2047,2047,2047,2047,2047,1042,1042,1042,1042,1042,1042,2047,2047,2047,1041,1041,1041,1042,1042,1042,1042,1042,1042,1043,1043,1042,1041,1041,1039,1040,1039,1038,1038,1038,1038,1038,1039,1039,1039,1041,1038,1038,1038,1039,1039,1039,1039,1038,1038,1040,1041,1041,2047,1042,1042,1042,1042,1042,1041,1041,1042,1042,1042,1042,1041,1041,1041,1041,1041,1040,1038,1039,1038,1038,1038,1039,1039,1039,1040,1040,1041,1040,1041,1039,1038,1038,1038,1038,1038,1039,1039,1039,1038,1038,1037,1037,1037,1038,1039,1040,1040,1040,1040,1040,1038,1038,1038,1038,1038,1039,1039,1039,1040,2047,2047,2047,2047,2047,2047,2047,1039,1039,1040,1040,1039,1040,1040,1040,1041,1041,1041,1042,1042,1042,1042,1041,1041,1040,1040,1039,2047,2047,2047,1041,1041,1041,1041,1042,1042,1040,1040,1037,1036,1036,1037,1037,1037,1037,1038,2047,2047,2047,2047,2047,1018,1017,1017,1016,1016,1016,1016,1016,1016,1016,1016,1016,1016,1016,1016,1016,1016,1016,1016,1016,1016,1016,1015,1015,1014,1015,1015,1014,1014,1015,1015,1015,1015,1016,1015,1016,1016,1015,1014,1014,1015,1014,1015,1014,1014,1015,1016,1016,1016,1016,1016,1016,1016,1016,1016,1016,1016,1016,1016,1016,1016,1016,1016,1015,1015,1015,1015,1015,1015,1016,1016,1017,1017,1017,1017,1017,1017,1016,1016,1016,1016,1016,1016,1016,1016,1016,1016,1016,1017,1016,1016,1016,1016,1016,1016,1015,1014,1013,1013,1013,1012,1012,1011,1011,1011,1011,1010,1010,1010,1009,1009,1008,1008,1008,1008,1007,1007,1007,1007,1006,1006,1006,1005,1005,1005,1004,1004,1004,1004,1003,1003,1003,1002,1002,1002,1001,1001,1001,1001,1000,1000,999,999,999,999,998,998,998,998,997,997,996,996,996,995,995,995,994,994,993,993,993,992,992,992,992,975,975,976,975,975,975,974,974,974,973,972,972,972,972,971,971,970,970,970,969,969,968,968,967,968,967,967,967,966,966,966,964,964,964,963,963,2047,2047,2047,2047,2047,2047,2047,2047,2047,2047,2047,2047,2047,2047,2047,2047,2047,2047,2047,2047,2047,2047,2047,2047,2047,2047,2047,2047,2047,2047,2047,2047,2047,2047,2047,2047,2047,2047
998,998,998,999,999,999,999,998,999,999,999,999,999,1000,1000,999,999,999,998,998,999,999,998,999,999,999,999,999,998,999,999,999,999,999,999,999,999,999,998,998,998,998,999,999,999,999,999,999,999,999,999,999,999,999,999,999,1000,1000,1000,999,999,1000,1000,1000,999,999,999,999,999,999,999,999,999,999,999,999,999,999,999,999,999,999,1000,1000,1001,1001,1001,1001,1001,1001,1001,1001,1001,1001,1001,1001,1001,1001,1001,1001,1002,1002,1002,1002,1001,1001,1001,1001,1001,1000,1000,1000,1001,1001,1002,1002,1002,1002,1002,1002,1002,1002,1002,1001,1001,1001,1001,1002,1002,1003,1003,1003,1004,1006,1006,1007,1008,1009,1009,1009,1010,1010,1011,1012,1011,1013,1013,1013,1013,1014,1014,1015,1016,1016,1017,1017,1017,1017,1016,1017,1017,1041,1041,1041,1040,1040,1041,1041,1041,1041,1041,1041,1041,1041,1040,1040,1039,1040,1039,1040,1040,1040,1041,1041,1042,1042,1042,2047,2047,2047,2047,2047,1041,1041,1042,1042,1042,1041,1041,1040,1040,1039,1040,1040,1040,1040,1041,1042,1042,1042,1042,1042,1041,1041,1042,1041,1041,1041,1041,1041,1041,1041,1041,1041,1041,1041,1042,1042,1042,1042,1042,1042,1043,1043,1044,2047,2047,1043,2047,2047,2047,1042,1043,1043,1043,1043,1043,1042,1042,1041,1041,1041,1041,1042,1042,1042,1042,1042,1042,1042,1042,1042,1041,1042,1041,1041,1039,1038,1038,1038,1039,1038,1039,1039,1040,1041,1039,1039,1038,1038,1039,1039,1039,1039,1039,1040,1041,1041,2047,1042,1042,1042,1042,1042,1042,1041,1042,1042,1041,1042,1041,1041,1041,1041,1041,1041,1039,1038,1038,1038,1038,1039,1039,1039,1041,1041,1041,1041,1041,1040,1038,1039,1039,1038,1038,1038,1038,1038,1037,1037,1037,1037,1037,1038,1039,1039,1040,1040,1040,1040,1038,1038,1037,1037,1038,1038,1038,1039,1039,2047,2047,2047,2047,2047,1036,1038,1038,1038,1039,1039,1039,1040,1040,1040,1041,1041,2047,1041,1041,1041,1041,1041,1040,1040,1040,2047,2047,2047,2047,2047,2047,2047,2047,1042,1042,1042,2047,1041,1037,2047,2047,1037,1036,1036,1037,2047,2047,2047,2047,1018,1017,1017,1016,1016,1016,1016,1016,1016,1016,1016,1016,1016,1016,1016,1016,1016,1016,1016,1016,1016,1015,1016,1015,1015,1014,1014,1015,1014,1014,1015,1015,1015,1015,1015,1015,1016,1016,1015,1015,1015,1015,1015,1015,1015,1015,1015,1015,1016,1016,1016,1016,1016,1016,1016,1016,1016,1016,1016,1016,1016,1016,1016,1016,1016,1016,1015,1015,1016,1016,1016,1016,1017,1017,1017,1017,1017,1017,1017,1016,1016,1016,1016,1016,1016,1016,1016,1017,1017,1017,1016,1016,1016,1016,1016,1015,1015,1014,1013,1013,1013,1012,1012,1011,1011,1011,1011,1010,1010,1010,1009,1009,1008,1008,1008,1008,1007,1007,1007,1007,1006,1006,1006,1005,1005,1005,1004,1004,1004,1004,1003,1003,1003,1002,1002,1002,1001,1001,1001,1001,1000,1000,1000,999,999,999,999,999,999,998,998,997,997,996,996,995,995,995,994,994,993,993,993,992,992,992,991,976,975,976,975,975,975,974,974,974,973,972,972,972,971,971,970,970,970,970,969,969,968,968,967,968,968,967,967,966,966,966,964,964,963,963,2047,2047,2047,2047,2047,2047,2047,2047,2047,2047,2047,2047,2047,2047,2047,2047,2047,2047,2047,2047,2047,2047,2047,2047,2047,2047,2047,2047,2047,2047,2047,2047,2047,2047,2047,2047,2047,2047,2047
998,998,998,998,998,998,998,998,999,999,999,999,999,999,999,999,999,999,999,999,999,999,999,999,999,999,999,999,998,999,999,999,999,999,999,999,999,999,998,998,998,998,999,999,999,999,999,999,999,999,999,999,999,999,999,999,1000,999,1000,1000,999,999,999,999,999,999,999,999,999,999,999,999,999,999,999,999,999,999,999,998,999,999,1000,1001,1001,1001,1001,1001,1001,1001,1002,1001,1001,1001,1001,1001,1001,1001,1000,1000,1001,1001,1001,1001,1001,1001,1001,1001,1000,1000,1000,1000,1001,1001,1002,1002,1002,1002,1002,1002,1002,1002,1002,1001,1001,1001,1001,1001,1002,1003,1003,1004,1004,1006,1006,1007,1007,1008,1009,1009,1010,1010,1010,1011,1011,1012,1012,1013,1013,1014,1015,1015,1016,1016,1017,1017,1017,1016,1016,1016,1042,1042,1042,1041,1040,1041,1041,1041,1041,1041,1041,1041,1042,1042,1041,1041,1041,1041,1041,1041,1040,1041,1042,1042,1042,1042,1042,2047,2047,2047,2047,2047,2047,1042,1042,1042,1042,1041,1041,1041,1040,1040,1040,1040,1040,1040,1041,1042,1042,1042,1043,1042,1042,1042,1042,1041,1042,1042,1041,1041,1041,1041,1041,1042,1041,1041,1042,1042,1042,1042,1042,1042,1043,1043,1044,1042,1042,1043,1043,1043,1042,1042,1043,1043,1042,1042,1042,1042,1042,1041,1041,1041,1041,1042,1042,1042,1042,1042,1042,1042,1043,1042,1042,1042,1042,1041,1040,1039,1039,1039,1040,1039,1039,1039,1039,1040,1039,1039,1038,1038,1038,1039,1039,1038,1040,1041,1041,1042,1043,1042,1042,1042,1042,1042,1041,1041,1041,1041,1041,1041,1041,1042,1041,1041,1040,1039,1038,1038,1038,1038,1038,1038,1038,1038,1040,1041,1041,1041,1041,1040,1039,1040,1039,1039,1038,1038,1037,1038,1038,1037,1037,1037,1038,1038,1039,1038,1039,1040,1039,1039,1037,1037,1037,1037,1038,1038,1038,1038,2047,2047,2047,2047,2047,2047,2047,1036,1037,1038,1038,1040,1041,1041,1041,1041,1041,1041,1041,1041,1041,1041,1041,1041,1040,1039,1039,2047,2047,2047,2047,2047,2047,2047,2047,1041,1041,1041,2047,2047,2047,2047,2047,1037,1036,1036,2047,2047,2047,2047,2047,1017,1017,1017,1016,1015,1015,1016,1016,1015,1016,1016,1016,1016,1016,1016,1015,1016,1016,1016,1016,1015,1014,1015,1014,1014,1013,1014,1014,1014,1014,1014,1015,1015,1015,1016,1015,1016,1016,1015,1015,1015,1015,1015,1015,1015,1015,1015,1015,1015,1016,1016,1016,1016,1016,1016,1016,1016,1016,1016,1016,1016,1016,1016,1016,1016,1016,1015,1015,1015,1015,1015,1016,1016,1016,1017,1017,1017,1017,1016,1016,1016,1016,1016,1016,1016,1016,1017,1017,1017,1017,1017,1016,1016,1016,1016,1015,1015,1014,1013,1013,1012,1012,1012,1011,1011,1010,1010,1010,1010,1009,1009,1008,1008,1008,1008,1008,1007,1007,1007,1007,1006,1006,1006,1005,1005,1005,1004,1004,1004,1003,1003,1003,1003,1003,1002,1002,1001,1001,1001,1000,1000,1000,1000,999,999,999,999,999,999,998,998,998,997,996,996,996,995,995,994,994,994,993,992,992,991,991,991,990,976,976,975,975,974,974,974,973,973,972,972,972,971,971,970,970,970,969,968,968,968,968,967,968,968,967,967,966,966,966,964,964,2047,2047,2047,2047,2047,2047,2047,2047,2047,2047,2047,2047,2047,2047,2047,2047,2047,2047,2047,2047,2047,2047,2047,2047,2047,2047,2047,2047,2047,2047,2047,2047,2047,2047,2047,2047,2047,2047,2047,2047,2047
998,998,998,998,998,998,999,998,999,998,999,999,999,999,999,999,999,999,998,998,998,998,998,998,998,998,998,999,998,999,999,999,999,999,999,999,999,999,999,999,998,999,999,999,999,999,999,999,999,999,999,999,999,1000,1000,1000,1000,1000,1000,999,999,999,999,999,999,999,999,999,999,999,999,999,999,999,999,999,999,998,998,999,999,999,999,1000,1000,1001,1001,1001,999,1001,1001,1001,1001,1001,1001,1001,1001,1000,1000,1000,1000,1001,1000,1001,1001,1001,1001,1001,1000,1000,1000,1000,1001,1001,1001,1002,1002,1002,1002,1002,1002,1002,1002,1001,1001,1001,1001,1001,1002,1003,1004,1004,1005,1006,1006,1007,1007,1008,1009,1008,1009,1010,1010,1011,1011,1012,1012,1012,1013,1013,1014,1015,1016,1016,1017,1017,1017,1017,1017,1040,1040,1041,1042,1041,1041,1041,1041,1041,1041,1041,1040,1041,1042,1042,1042,1042,1042,1042,1042,1042,1041,1042,1042,1043,1043,1043,1042,1042,2047,2047,2047,2047,2047,1043,1044,1043,1043,1042,1041,1041,1041,1041,1040,1041,1040,1042,1042,1042,1043,1042,1043,1042,1042,1042,1042,1042,1042,1042,1042,1042,1042,1042,1042,1042,1041,1041,1042,1042,1042,1042,1042,1043,1043,1044,1044,1044,1043,1044,1044,1044,1043,1043,1043,1042,1042,1042,1042,1042,1042,1041,1041,1042,1041,1042,1042,1042,1042,1042,1041,1042,1043,1042,1042,1042,1042,1041,1040,1039,1040,1039,1040,1039,1039,1038,1039,1039,1038,1038,1038,1038,1039,1038,1040,1038,1040,1040,1041,1042,1042,1041,1042,1042,1042,1041,1041,1041,1041,1041,1041,1041,1041,1041,1041,1040,1040,1040,1038,1038,1037,1037,1038,1038,1039,1038,1039,1041,1042,1041,1041,1041,1040,1040,1040,1039,1038,1038,1037,1038,1038,1037,1037,1037,1038,1038,1038,1038,1038,1040,1039,1038,1037,1039,1037,1037,1037,1037,1037,1037,2047,2047,2047,2047,2047,2047,2047,1037,1037,1037,1038,1040,1040,1041,1042,1041,1041,1041,1041,1041,1041,1041,1041,1041,1041,2047,2047,2047,2047,2047,2047,2047,2047,2047,2047,2047,2047,2047,2047,2047,2047,2047,2047,2047,1037,2047,2047,2047,2047,2047,2047,2047,1018,1017,1016,1015,1016,1016,1016,1016,1016,1016,1016,1016,1016,1016,1015,1016,1016,1016,1015,1014,1014,1014,1014,1014,1013,1014,1014,1014,1014,1014,1015,1015,1016,1016,1015,1016,1016,1015,1015,1015,1015,1014,1015,1014,1014,1015,1015,1015,1015,1015,1015,1016,1016,1015,1016,1016,1015,1016,1016,1015,1015,1016,1016,1016,1016,1015,1016,1016,1016,1015,1016,1016,1016,1016,1017,1017,1017,1017,1016,1016,1016,1017,1016,1017,1017,1017,1017,1017,1017,1017,1016,1016,1016,1016,1015,1015,1014,1013,1013,1012,1012,1012,1012,1011,1011,1011,1010,1011,1010,1010,1009,1009,1008,1008,1008,1008,1007,1007,1007,1007,1006,1006,1005,1005,1004,1004,1004,1004,1003,1003,1002,1003,1002,1002,1002,1001,1001,1001,1000,1000,1000,1000,999,999,999,999,999,999,998,997,997,996,996,996,995,995,995,995,995,994,993,992,992,992,991,991,990,976,976,975,975,974,974,973,973,973,972,972,972,971,971,971,970,970,970,969,968,968,968,968,968,968,964,967,967,2047,2047,2047,2047,2047,2047,2047,2047,2047,2047,2047,2047,2047,2047,2047,2047,2047,2047,2047,2047,2047,2047,2047,2047,2047,2047,2047,2047,2047,2047,2047,2047,2047,2047,2047,2047,2047,2047,2047,2047,2047,2047,2047,2047,2047
998,998,998,998,998,998,998,998,999,999,999,998,999,999,999,998,998,998,998,998,998,998,998,998,998,998,998,998,998,999,999,999,999,999,999,999,999,999,999,998,999,999,999,999,999,999,999,999,999,999,999,999,999,1000,1000,1000,1000,1000,1000,999,999,999,999,999,999,999,999,999,999,999,999,999,999,999,999,999,999,999,999,999,999,999,999,999,999,999,1000,1000,999,1001,1002,1001,1002,1002,1002,1001,1001,1001,1000,1000,1001,1001,1001,1001,1001,1001,1001,1001,1001,1001,1001,1001,1001,1001,1001,1002,1002,1002,1002,1002,1002,1002,1001,1001,1001,1001,1001,1001,1002,1003,1004,1004,1005,1006,1006,1006,1007,1007,1008,1008,1008,1009,1010,1011,1010,1011,1012,1012,1012,1013,1015,1016,1017,1017,1018,1017,1017,1017,1017,1041,1041,1041,1041,1041,1041,1041,1041,1041,1041,1041,1040,1042,1042,1042,1042,1042,1042,1042,1042,1042,1042,1043,1043,1043,1043,1043,1043,2047,2047,2047,2047,2047,2047,1044,1044,1044,1044,1043,1042,1042,1042,1042,1041,1041,1041,1042,1042,1042,1043,1042,1043,1043,1042,1042,1043,1042,1042,1042,1042,1042,1042,1042,1042,1042,1041,1042,1042,1043,1044,1043,1043,1044,1044,1044,1045,1045,1045,1046,1046,1045,1045,1043,1043,1043,1042,1042,1043,1042,1042,1041,1042,1042,1042,1043,1042,1042,1042,1041,1041,1040,1042,1042,1041,1042,1042,1041,1040,1039,1039,1039,1040,1039,1039,1038,1038,1038,1038,1038,1038,1038,1039,1040,1040,1040,1041,1041,1041,1041,1041,1041,1041,1041,1041,1041,1041,1041,1041,1041,1041,1041,1041,1041,1041,1040,1040,1040,1040,1038,1037,1037,1038,1039,1040,1040,1040,1041,1042,1041,1041,1041,1040,1041,1040,1040,1038,1037,1037,1038,1037,1037,1037,1038,1038,1038,1039,1038,1039,1040,1039,1038,1039,1039,1039,1039,1037,1037,1037,1038,2047,2047,2047,2047,2047,2047,1037,1037,1037,1038,1038,1040,1041,1042,1043,1043,1043,1043,1041,1040,1040,1041,1041,1041,2047,2047,2047,2047,2047,2047,2047,2047,2047,2047,2047,1044,1045,1045,2047,1045,2047,2047,2047,2047,2047,2047,2047,2047,2047,2047,2047,1019,1018,1017,1017,1016,1015,1016,1016,1015,1015,1016,1016,1016,1016,1015,1015,1015,1015,1015,1014,1014,1014,1014,1013,1014,1014,1014,1014,1014,1014,1015,1015,1015,1015,1015,1014,1015,1015,1014,1014,1014,1014,1014,1014,1014,1014,1014,1014,1014,1015,1015,1015,1016,1016,1015,1015,1016,1015,1015,1015,1015,1015,1016,1016,1015,1015,1015,1015,1015,1016,1015,1016,1016,1016,1016,1017,1017,1017,1017,1016,1016,1016,1017,1017,1017,1017,1017,1017,1017,1017,1017,1017,1016,1016,1016,1016,1015,1014,1013,1013,1012,1012,1012,1012,1011,1011,1011,1011,1011,1011,1011,1010,1008,1008,1008,1008,1008,1007,1008,1007,1007,1007,1006,1005,1005,1004,1004,1004,1004,1003,1003,1002,1003,1002,1001,1001,1001,1000,1000,1000,1000,1000,999,999,999,999,999,999,998,996,997,997,996,996,996,996,995,995,995,994,994,993,992,992,992,991,991,990,973,975,975,974,974,974,973,973,973,972,972,972,971,971,970,970,969,969,968,968,968,968,968,969,2047,2047,2047,2047,2047,2047,2047,2047,2047,2047,2047,2047,2047,2047,2047,2047,2047,2047,2047,2047,2047,2047,2047,2047,2047,2047,2047,2047,2047,2047,2047,2047,2047,2047,2047,2047,2047,2047,2047,2047,2047,2047,2047,2047,2047,2047,2047,2047,2047
998,998,998,998,998,997,998,998,999,999,999,998,999,999,999,998,998,998,998,998,998,998,998,998,998,998,998,998,998,999,999,999,999,999,999,999,999,999,999,999,999,999,999,999,999,999,999,999,998,999,999,999,999,999,999,999,1000,1000,1000,999,999,999,998,999,998,998,998,998,998,998,998,998,998,999,998,999,999,999,999,999,999,999,999,999,999,998,999,999,1000,1001,1001,1001,1001,1002,1001,1001,1001,1001,1000,1001,1001,1001,1001,1002,1002,1002,1001,1001,1001,1001,1001,1000,1001,1001,1001,1001,1002,1002,1002,1002,1002,1001,1001,1001,1001,1001,1001,1001,1002,1003,1004,1004,1005,1006,1006,1006,1007,1007,1008,1008,1008,1009,1010,1011,1010,1011,1011,1011,1012,1013,1014,1015,1016,1016,1017,1017,1017,1017,1017,2047,1041,1041,1042,1042,1041,1041,1042,1041,1041,1041,1041,1042,1043,1042,1042,1042,1042,1042,1042,1042,1042,1043,1043,1043,1043,1043,1043,2047,2047,1043,1043,2047,2047,1043,1044,1044,1044,1043,1043,1043,1042,1042,1042,1042,1042,1042,1042,1043,1043,1043,1043,1043,1043,1043,1043,1042,1043,1043,1043,1043,1043,1043,1042,1042,1042,1042,1042,1043,1043,1042,1042,1043,1044,1044,1045,1045,1045,1046,1045,1045,1045,1043,1043,1042,1042,1042,1041,1042,1042,1041,1041,1042,1041,1041,1042,1042,1042,1041,1041,1040,1040,1040,1040,1040,1041,1041,1040,1039,1039,1039,1040,1039,1038,1038,1038,1038,1038,1038,1038,1038,1038,1039,1040,1038,1041,1041,1041,1041,1039,1041,1041,1041,1041,1041,1041,1041,1041,1041,1040,1040,1040,1040,1041,1040,1040,1040,1040,1040,1040,1037,1038,1040,1041,1040,1040,1040,1041,1041,1041,1041,1040,1040,1037,1037,1037,1037,1037,1037,1037,1037,1037,1038,1038,1038,1039,1038,1038,1038,1039,1038,1037,1039,1039,1037,1037,1037,1037,1038,1038,1037,1037,1038,1037,1037,1037,1037,1037,1037,1037,1040,1041,1043,1043,1043,1043,1043,1041,1040,1040,1040,1042,1041,2047,2047,2047,2047,2047,2047,2047,2047,2047,2047,2047,1044,1044,1044,1045,2047,2047,2047,2047,1040,1038,2047,2047,2047,2047,2047,2047,1019,1018,1017,1017,1016,1015,1015,1015,1013,1013,1015,1016,1016,1016,1015,1015,1015,1015,1014,1014,1014,1014,1014,1013,1014,1014,1014,1014,1014,1014,1015,1015,1014,1014,1014,1014,1014,1015,1014,1014,1015,1014,1014,1014,1014,1014,1014,1014,1014,1015,1015,1015,1016,1016,1016,1016,1016,1016,1016,1016,1015,1016,1016,1016,1016,1016,1015,1015,1015,1016,1015,1016,1015,1016,1016,1016,1016,1016,1016,1016,1016,1016,1016,1016,1017,1017,1017,1017,1017,1017,1017,1017,1016,1016,1016,1016,1016,1014,1014,1013,1012,1012,1012,1012,1011,1011,1011,1011,1011,1011,1009,1008,1008,1008,1008,1008,1008,1008,1008,1007,1007,1007,1006,1005,1005,1004,1004,1004,1004,1003,1003,1002,1003,1003,1001,1001,1000,1000,1000,1000,999,999,999,999,999,999,999,998,996,995,996,997,996,996,995,996,995,995,995,995,994,994,993,992,992,992,991,990,973,975,974,974,973,975,973,973,973,972,972,972,971,971,970,970,969,969,968,968,969,969,969,2047,2047,2047,2047,2047,2047,2047,2047,2047,2047,2047,2047,2047,2047,2047,2047,2047,2047,2047,2047,2047,2047,2047,2047,2047,2047,2047,2047,2047,2047,2047,2047,2047,2047,2047,2047,2047,2047,2047,2047,2047,2047,2047,2047,2047,2047,2047,2047,2047,2047
998,998,998,998,998,998,998,998,998,998,998,998,999,999,999,998,998,998,998,998,998,998,999,998,998,998,998,999,999,999,1000,1000,1000,1000,999,999,999,999,999,999,999,999,999,999,999,999,999,999,999,999,999,999,999,999,999,999,1000,1000,999,999,999,999,998,998,998,998,998,998,998,998,998,998,999,999,998,999,998,999,999,999,999,999,999,999,999,999,999,1000,1000,1000,1000,1000,1000,1001,1001,1001,1001,1000,1000,1000,1000,1001,1001,1001,1002,1002,1001,1001,1001,1001,1001,1001,1001,1001,1001,1002,1002,1002,1002,1002,1002,1001,1001,1001,1001,1001,1001,1002,1003,1003,1004,1005,1005,1006,1006,1007,1007,1007,1008,1008,1008,1008,1010,1011,1010,1011,1011,1011,1012,1013,1014,1015,1016,1016,1017,1017,1017,1017,1017,2047,1042,1042,1042,1042,1041,1042,1042,1042,1042,1041,1041,1042,1043,1043,1042,1042,1042,1042,1042,1042,1042,1042,1043,1043,1043,1043,1042,1043,1043,1043,1043,1043,1044,1043,1044,1043,1043,1042,1042,1042,1042,1043,1042,1042,1042,1042,1042,1043,1043,1042,1042,1042,1042,1042,1042,1042,1042,1043,1043,1043,1043,1043,1043,1043,1043,1043,1043,1043,1043,1042,1042,1042,1043,1044,1044,1044,1044,1044,1044,1044,1042,1042,1043,1042,1042,1041,1041,1042,1041,1041,1041,1042,2047,2047,2047,2047,2047,2047,2047,1040,1040,1040,1039,1041,1041,1041,1039,1038,1039,1039,1040,1039,1038,1038,1038,1038,1038,1038,1038,1038,1038,1038,1040,1040,1041,1041,1041,1041,1041,1041,1041,1041,1041,1041,1041,1041,1041,1041,1040,1040,1040,1040,1040,1040,1040,1039,1040,1040,1039,1040,1038,1039,1041,1040,1040,1041,1042,1041,1041,1041,1040,1040,1037,1037,1037,1037,1037,1038,1037,1037,1037,1038,1038,1038,1038,1038,1038,1038,1039,1037,1037,1037,1037,1037,1038,1037,1038,1038,1038,1038,1038,1037,1037,1037,1037,1037,1037,1036,1036,1038,1039,1042,1042,1042,1042,1041,1041,1040,1040,1039,1039,1039,1038,2047,2047,2047,2047,2047,2047,1044,1043,1044,1044,1044,1044,1043,1046,2047,2047,2047,2047,1040,2047,2047,2047,2047,2047,2047,2047,1020,1018,1018,1017,1016,1014,1014,1015,1014,1015,1015,1015,1016,1016,1016,1015,1015,1015,1014,1014,1014,1013,1014,1013,1014,1014,1014,1014,1014,1014,1014,1014,1014,1014,1014,1014,1014,1014,1014,1014,1014,1014,1014,1014,1013,1014,1014,1014,1014,1015,1015,1015,1016,1016,1016,1016,1016,1016,1016,1016,1015,1016,1016,1016,1016,1015,1015,1015,1015,1015,1015,1015,1015,1016,1016,1016,1016,1016,1016,1016,1016,1016,1016,1016,1016,1016,1017,1017,1017,1017,1017,1017,1017,1017,1016,1016,1016,1015,1014,1013,1012,1012,1012,1012,1011,1011,1011,1011,1011,1011,1010,1009,1009,1008,1008,1008,1007,1007,1007,1007,1007,1007,1006,1005,1005,1004,1004,1004,1004,1004,1003,1003,1003,1003,1001,1001,1000,1000,1000,1000,999,999,999,999,999,999,999,998,996,995,996,997,996,996,996,996,995,995,995,995,994,993,992,992,992,991,991,990,972,972,974,974,973,973,973,973,973,972,972,971,971,970,970,970,969,969,968,968,2047,2047,2047,2047,2047,2047,2047,2047,2047,2047,2047,2047,2047,2047,2047,2047,2047,2047,2047,2047,2047,2047,2047,2047,2047,2047,2047,2047,2047,2047,2047,2047,2047,2047,2047,2047,2047,2047,2047,2047,2047,2047,2047,2047,2047,2047,2047,2047,2047,2047,2047,2047,2047
998,998,998,998,998,998,998,998,998,998,998,998,998,999,999,998,998,998,998,998,998,998,998,998,998,998,998,999,999,999,999,999,999,999,999,999,999,999,999,999,999,999,999,999,999,999,999,999,999,999,999,999,999,999,999,999,1000,1000,999,999,999,999,998,999,998,998,998,998,999,998,999,998,999,999,999,999,999,999,999,999,999,999,999,999,999,999,999,1000,1000,1000,1000,1000,1000,1001,1001,1001,1000,1000,1000,1000,1000,1000,1001,1001,1002,1002,1001,1001,1001,1001,1001,1001,1000,1001,1001,1001,1002,1002,1002,1002,1001,1001,1001,1001,1001,1001,1001,1002,1003,1003,1004,1005,1006,1006,1007,1007,1007,1007,1007,1008,1008,1008,1010,1011,1010,1010,1011,1012,1012,1013,1013,1014,1015,1015,1015,1016,2047,1016,1016,2047,2047,1042,1042,1042,1042,1042,1042,1042,1042,1042,1043,1043,1043,1043,1043,1042,1042,1042,1042,1042,1042,1043,1043,1043,1042,1043,1043,1043,1043,1043,1043,1043,1044,1043,1044,1043,1043,1042,1042,1042,1042,1042,1042,1042,1042,1042,1042,1043,1043,1042,1042,1043,1042,1042,1042,1041,1042,1042,1042,1043,1043,1043,1043,1043,1043,1043,1043,1042,1042,1042,1042,1042,1043,1043,1043,1042,1042,1042,1043,1043,1042,1041,1042,1042,1042,1041,1041,1041,1041,1041,1041,1041,2047,2047,2047,2047,2047,2047,2047,1041,1041,1040,1041,1041,1040,1040,1039,1038,1038,1038,1040,1039,1038,1038,1038,1038,1038,1038,1038,1038,1039,1040,1040,1040,1040,1040,1040,1039,1040,1040,1041,1041,1041,1041,1041,1041,1041,1041,1040,1040,1039,1039,1040,1040,1039,1039,1039,1039,1038,1038,1038,1038,1038,1039,1039,1040,1041,1041,1041,1041,1040,1041,1041,1037,1037,1036,1036,1037,1037,1037,1037,1037,1037,1037,1038,1038,1038,1039,1039,1037,1039,1039,1039,1038,1038,1037,1038,1038,1037,1038,1037,1037,1036,1036,1037,1037,1037,1037,1036,1037,1038,1040,1040,1040,1040,1040,1039,1039,1039,1038,1038,1039,1038,2047,2047,2047,2047,2047,1044,1043,1043,1043,1043,1043,1043,1042,2047,2047,2047,2047,2047,1040,1039,2047,2047,2047,2047,2047,2047,1020,1019,1018,1017,1015,1014,1013,1015,1013,1013,1015,1016,1016,1016,1016,1015,1015,1015,1014,1013,1013,1013,1013,1013,1014,1014,1014,1014,1014,1014,1014,1014,1014,1013,1013,1013,1014,1014,1014,1014,1015,1014,1014,1013,1013,1013,1013,1014,1014,1015,1015,1015,1016,1016,1016,1016,1016,1016,1016,1016,1016,1015,1016,1015,1015,1015,1015,1015,1015,1015,1014,1015,1015,1016,1016,1016,1016,1016,1016,1016,1016,1016,1016,1016,1016,1016,1016,1017,1017,1017,1017,1017,1017,1017,1016,1016,1016,1015,1014,1013,1012,1012,1012,1012,1011,1011,1011,1011,1011,1011,1010,1009,1009,1008,1008,1008,1007,1007,1007,1007,1007,1007,1006,1005,1005,1004,1004,1004,1003,1003,1003,1003,1003,1002,1001,1001,1000,999,999,999,999,999,999,999,999,999,999,998,996,996,996,996,996,996,995,995,995,995,995,995,994,993,992,992,992,991,990,989,989,972,974,973,973,973,973,972,972,972,972,971,971,970,970,970,969,969,968,2047,2047,2047,2047,2047,2047,2047,2047,2047,2047,2047,2047,2047,2047,2047,2047,2047,2047,2047,2047,2047,2047,2047,2047,2047,2047,2047,2047,2047,2047,2047,2047,2047,2047,2047,2047,2047,2047,2047,2047,2047,2047,2047,2047,2047,2047,2047,2047,2047,2047,2047,2047,2047,2047
997,998,998,998,998,998,998,998,998,998,998,998,998,998,998,998,998,998,998,998,998,997,997,998,998,997,998,998,999,999,999,999,999,999,999,999,999,999,999,999,999,999,999,999,999,999,999,999,999,999,999,999,999,1000,1000,1000,1000,1000,999,999,999,999,998,999,999,998,999,999,999,999,999,999,999,999,999,999,999,999,999,999,999,999,999,999,999,999,999,999,999,1000,1000,1000,1000,1000,1000,1000,1000,1000,1000,1000,1000,1000,1000,1001,1001,1001,1001,1001,1001,1001,1001,1000,1000,1000,1001,1001,1001,1001,1001,1001,1001,1001,1001,1001,1001,1001,1001,1002,1003,1003,1004,1005,1006,1006,1007,1007,1007,1007,1007,1008,1008,1008,1010,1011,1010,1011,1011,1012,1013,1013,1014,1014,1015,1015,1016,1016,1016,1016,2047,2047,2047,1042,1042,1042,1042,1042,1042,1043,1042,1042,1043,1043,1043,1042,1043,1042,1042,1042,1042,1043,1042,1043,1042,1042,1042,1042,1042,1042,1042,1042,1042,1042,1043,2047,1043,2047,1043,1042,1042,1043,1043,1043,1043,1042,1043,1043,1043,1043,1043,1043,1043,1043,1042,1042,1042,1042,1042,1042,1042,1043,1043,1043,1043,1043,1042,1042,1042,1042,1042,1042,1041,1041,1042,1043,1043,1043,1042,1042,1043,1042,1042,1041,1041,1041,1041,1041,1041,1041,1041,1041,1041,1041,2047,2047,2047,2047,2047,2047,2047,1041,1041,1040,1041,1041,1041,1040,1039,1039,1038,1039,1040,1039,1039,1038,1038,1038,1038,1038,1037,1038,1039,1040,1040,1040,1041,1040,1040,1039,1040,1039,1039,1039,1041,1041,1041,1041,1041,1041,1038,1040,1039,1040,1040,1040,1039,1039,1039,1039,1038,1038,1038,1038,1038,1038,1038,1040,1042,1041,1041,1041,1041,1041,1042,1040,1036,1036,1036,1036,1036,1037,1037,1037,1037,1037,1038,1038,1038,1038,1039,1039,1040,1040,1041,1038,1038,1037,1037,1037,1036,1037,1037,1037,1035,1036,1037,1037,1037,1037,1037,1037,1038,1039,1039,1039,1039,1039,1039,1039,1039,1038,1038,1039,1039,2047,2047,2047,2047,1044,1044,1043,1043,1042,1042,1042,1042,1042,1042,2047,2047,1040,1040,1041,1040,2047,2047,2047,2047,2047,2047,2047,2047,1018,1016,1016,1015,1014,1015,1014,1014,1016,1016,1016,1016,1016,1015,1014,1014,1013,1013,1013,1013,1013,1013,1014,1014,1014,1014,1014,1014,1014,1014,1013,1013,1013,1013,1014,1014,1014,1014,1015,1014,1014,1014,1013,1014,1014,1013,1014,1014,1015,1015,1016,1016,1016,1016,1016,1016,1016,1016,1016,1015,1015,1015,1015,1015,1015,1015,1015,1015,1015,1015,1015,1016,1016,1016,1016,1016,1016,1016,1016,1016,1016,1016,1016,1017,1017,1017,1017,1017,1017,1017,1017,1017,1016,1016,1016,1015,1014,1013,1012,1013,1013,1012,1012,1011,1011,1011,1011,1011,1010,1010,1009,1009,1008,1008,1008,1007,1007,1007,1007,1007,1006,1006,1005,1004,1004,1004,1004,1003,1003,1002,1002,1002,1001,1001,1000,1000,999,999,999,999,999,998,999,999,998,996,996,996,996,996,996,996,995,996,995,995,995,995,994,993,992,992,992,991,990,989,989,975,975,974,974,974,973,973,972,972,972,971,971,970,969,969,969,968,2047,2047,2047,2047,2047,2047,2047,2047,2047,2047,2047,2047,2047,2047,2047,2047,2047,2047,2047,2047,2047,2047,2047,2047,2047,2047,2047,2047,2047,2047,2047,2047,2047,2047,2047,2047,2047,2047,2047,2047,2047,2047,2047,2047,2047,2047,2047,2047,2047,2047,2047,2047,2047,2047,2047
997,998,998,998,998,998,998,998,998,998,998,998,998,998,998,998,998,998,998,998,998,998,998,998,998,998,998,999,999,999,999,999,999,999,999,999,999,999,999,999,999,999,999,999,999,999,999,999,999,998,999,999,999,1000,1000,1000,1000,1000,999,999,999,999,999,999,999,999,999,1000,1000,999,999,999,999,999,999,999,999,999,999,999,999,999,998,998,998,998,998,999,999,999,999,999,999,999,999,1000,999,999,999,1000,1000,1000,1000,1000,1001,1001,1001,1001,1001,1002,1001,1001,1000,1000,1001,1000,1000,1000,1001,1001,1001,1000,1000,1001,1001,1001,1002,1002,1003,1004,1005,1006,1006,1007,1007,1007,1007,1007,1008,1008,1008,1009,1010,1010,1010,1010,1011,1011,1012,1013,1013,1014,1014,1015,1015,1015,2047,1015,2047,2047,2047,1042,1042,1042,1042,1042,1042,1044,1044,1043,1043,1042,1042,1042,1042,1042,1042,1042,1043,1043,1043,1043,1043,1042,1042,1042,1042,1042,1042,1043,1043,1043,1043,2047,2047,1044,2047,2047,1042,1042,1043,1043,1043,1043,1043,1043,1043,1043,1043,1042,1043,1043,1043,1043,1042,1042,1042,1042,1042,1043,1043,1043,1043,1043,1042,1042,1042,1041,1041,1041,1041,1041,1042,1042,1042,1043,1042,1041,1041,1041,1042,1040,1041,1041,1041,1040,1040,1041,1040,1041,1041,1041,2047,2047,2047,2047,2047,2047,2047,1041,1041,1041,1041,1041,1040,1040,1039,1039,1039,1039,1040,1039,1039,1038,1038,1038,1038,1038,1038,1038,1039,1040,1040,1040,1041,1041,1041,1039,1040,1039,1041,1041,1041,1040,1040,1041,1040,1040,1039,1039,1040,1041,1041,1040,1040,1039,1039,1039,1039,1039,1038,1039,1039,1040,1040,1041,1041,1042,1042,1041,1041,1040,1041,1040,1040,1037,1037,1037,1036,1037,1037,1037,1037,1037,1038,1037,1038,1038,1039,1039,1039,1042,1041,1041,1040,1038,1038,1037,1037,1037,1037,1037,1035,1037,1037,1037,1037,1037,1037,1038,1038,1039,1039,1039,1040,1039,1040,1039,1039,1039,1038,1039,1039,1039,1045,2047,2047,1043,1043,1042,1042,1042,1041,1041,1041,1041,1040,1040,2047,1039,1040,1041,1040,1040,2047,2047,2047,2047,2047,2047,2047,1018,1016,1016,1015,1014,1015,1014,1015,1015,1015,1016,1016,1015,1015,1014,1014,1013,1013,1013,1014,1013,1013,1014,1014,1014,1014,1014,1014,1014,1014,1013,1013,1013,1013,1014,1014,1013,1014,1014,1014,1014,1014,1013,1014,1014,1014,1014,1014,1015,1015,1016,1016,1016,1017,1016,1016,1016,1016,1015,1015,1015,1015,1015,1015,1015,1015,1015,1015,1015,1015,1015,1015,1016,1016,1016,1016,1016,1016,1016,1016,1016,1016,1016,1016,1016,1017,1017,1017,1017,1017,1017,1017,1016,1016,1016,1015,1014,1014,1013,1013,1013,1012,1012,1011,1011,1011,1011,1011,1010,1010,1009,1009,1008,1008,1008,1007,1007,1007,1007,1007,1006,1006,1006,1004,1004,1003,1003,1003,1003,1002,1002,1002,1001,1001,1000,1000,999,999,999,999,998,998,998,998,998,996,996,996,996,997,996,996,996,996,995,995,995,994,994,993,992,992,992,991,991,990,990,990,974,974,974,974,973,973,972,972,972,971,971,970,970,2047,969,2047,2047,2047,2047,2047,2047,2047,2047,2047,2047,2047,2047,2047,2047,2047,2047,2047,2047,2047,2047,2047,2047,2047,2047,2047,2047,2047,2047,2047,2047,2047,2047,2047,2047,2047,2047,2047,2047,2047,2047,2047,2047,2047,2047,2047,2047,2047,2047,2047,2047,2047,2047,2047,2047,2047,2047
997,998,998,998,999,998,998,999,999,999,999,999,998,998,999,998,998,998,998,998,998,998,998,998,998,998,998,999,999,999,999,999,999,999,999,999,999,999,999,999,999,999,999,999,999,999,999,999,998,998,999,999,999,1000,1000,1000,1000,1000,999,998,999,999,998,999,999,998,999,999,999,999,999,998,999,999,999,999,999,999,999,999,999,999,999,999,998,998,998,998,999,999,999,999,999,999,999,999,999,999,1000,1000,1000,1000,1000,1001,1002,1001,1001,1001,1001,1002,1001,1001,1000,1000,1001,1001,1000,1000,1001,1001,1001,1001,1001,1001,1001,1002,1002,1003,1004,1004,1006,1006,1007,1007,1007,1007,1007,1007,1008,1008,1008,1009,1010,1010,1010,1011,1011,1012,1013,1013,1014,1014,1014,1014,1015,1015,2047,1014,1014,2047,2047,1042,1042,1042,1042,1042,1044,1044,1044,1043,1043,1042,1042,1042,1042,1042,1042,1042,1043,1043,1043,1043,1043,1043,1042,1042,1042,1042,1043,1043,1043,1043,1044,1044,2047,2047,2047,2047,1044,1044,1044,1044,1043,1043,1043,1043,1043,1042,1042,1042,1042,1043,1042,1042,1042,1042,1042,1042,1042,1043,1043,1043,1043,1043,1043,1042,1042,1042,1041,1041,1041,1041,1041,1042,1041,1042,1043,1041,1041,1041,1042,1042,1042,1042,1042,1041,1041,1041,1041,1041,1040,1040,2047,2047,2047,2047,2047,2047,1040,1040,1040,1041,1041,1041,1040,1040,1039,1039,1039,1039,1039,1039,1039,1038,1038,1038,1038,1038,1037,1037,1037,1040,1040,1039,1041,1041,1041,1040,1038,1039,1039,1039,1039,1038,1038,1038,1040,1039,1039,1039,1040,1041,1041,1040,1040,1039,1039,1040,1039,1039,1039,1039,1040,1041,1041,1041,1042,1042,1041,1040,1040,1040,1040,1040,1040,1040,1037,1037,1037,1037,1037,1037,1037,1037,1037,1038,1038,1039,1039,1039,1040,1042,1042,1041,1040,1040,1040,1040,1039,1039,1039,1038,1035,1039,1038,1038,1038,1038,1037,1038,1039,1039,1039,1039,1039,1039,1040,1039,1039,1039,1038,1039,1040,1040,1044,1041,1042,1042,1042,1042,1042,1042,1042,1042,1041,1041,1041,1041,1041,1040,1040,1041,1041,2047,2047,2047,2047,2047,2047,2047,2047,1016,1016,1016,1014,1014,1014,1014,1013,1014,1014,1014,1015,1015,1014,1014,1014,1014,1014,1014,1014,1014,1013,1014,1014,1014,1014,1014,1013,1014,1014,1013,1013,1013,1014,1014,1014,1014,1014,1015,1014,1014,1014,1014,1014,1014,1014,1014,1015,1015,1015,1016,1016,1017,1017,1017,1016,1016,1016,1015,1015,1015,1015,1015,1015,1015,1015,1015,1015,1015,1015,1015,1016,1016,1016,1016,1016,1016,1016,1016,1016,1016,1016,1016,1016,1016,1016,1016,1017,1017,1017,1017,1017,1016,1017,1016,1015,1014,1014,1013,1013,1013,1012,1012,1012,1012,1011,1012,1011,1011,1010,1009,1009,1008,1008,1008,1007,1007,1007,1007,1007,1006,1006,1006,1004,1004,1004,1003,1003,1003,1003,1002,1002,1002,1001,1000,1000,999,999,999,998,998,997,997,996,996,996,996,996,996,997,996,996,996,996,995,995,994,994,994,992,992,992,992,991,991,991,991,2047,974,974,974,973,973,972,972,972,971,971,970,2047,2047,2047,2047,2047,2047,2047,2047,2047,2047,2047,2047,2047,2047,2047,2047,2047,2047,2047,2047,2047,2047,2047,2047,2047,2047,2047,2047,2047,2047,2047,2047,2047,2047,2047,2047,2047,2047,2047,2047,2047,2047,2047,2047,2047,2047,2047,2047,2047,2047,2047,2047,2047,2047,2047,2047,2047,2047,2047,2047
998,998,998,998,998,998,998,998,999,999,999,998,998,998,999,998,998,998,998,998,998,999,999,999,999,999,998,999,999,999,999,999,999,999,999,999,999,999,999,999,999,999,999,999,999,999,999,999,998,998,999,999,999,999,999,999,999,999,999,998,998,998,998,999,999,998,999,999,999,999,999,998,998,999,999,999,999,999,999,999,999,999,999,999,999,998,998,999,999,999,999,999,999,999,999,999,999,1000,1000,1000,1000,1000,1000,1001,1002,1001,1001,1001,1001,1002,1001,1001,1000,1000,1000,1000,1000,1000,1001,1001,1000,1001,1001,1002,1002,1002,1002,1003,1004,1004,1006,1006,1007,1007,1007,1007,1007,1007,1008,1008,1008,1009,1010,1011,1010,1011,1012,1012,1013,1013,1014,1014,1015,1014,1014,1014,1014,1014,1014,2047,2047,1042,1041,1041,1043,1044,1044,1044,1044,1044,1044,1043,1042,1043,1042,1042,1042,1042,1042,1043,1043,1042,1042,1042,1042,1042,1042,1042,1042,1043,1042,1043,1044,1044,2047,2047,2047,1044,1044,1044,1044,1043,1043,1043,1043,1043,1043,1042,1042,1042,1042,1043,1042,1042,1042,1042,1041,1042,1042,1042,1042,1042,1042,1043,1043,1042,1042,1042,1041,1041,1041,1041,1041,1041,1041,1041,1042,1042,1042,1042,1042,1041,1042,1041,1042,1041,1041,1041,1041,1041,1040,1041,1041,1041,2047,2047,2047,1040,1040,1041,1041,1040,1041,1040,1039,1040,1039,1039,1038,1039,1039,1039,1039,1039,1039,1039,1038,1038,1038,1037,1037,1036,1039,1040,1041,1041,1041,1040,1040,1039,1038,1038,1038,1038,1038,1041,1040,1041,1040,1041,1041,1041,1041,1040,1040,1039,1039,1039,1039,1039,1039,1039,1040,1041,1041,1042,1042,1042,1042,1041,1041,1040,1040,1040,1040,1040,1037,1037,1037,1037,1037,1037,1037,1037,1037,1038,1038,1038,1039,1038,1040,1040,1041,1040,1040,1040,2047,2047,2047,1039,1039,1038,1035,1039,1038,1038,1038,1038,1037,1038,1039,1039,1039,1038,1039,1039,1039,1039,1038,1038,1038,1039,1039,1040,1041,1041,1041,1042,1042,1042,1042,1042,1041,1041,1041,1041,1040,1040,2047,1034,1041,1041,1040,1041,1041,2047,2047,2047,2047,2047,2047,2047,1016,1015,1014,1014,1014,1013,1013,1013,1013,1013,1014,1014,1014,1014,1014,1014,1014,1014,1014,1014,1014,1014,1014,1014,1014,1014,1014,1014,1014,1013,1013,1013,1014,1014,1014,1014,1014,1015,1015,1014,1014,1014,1015,1015,1014,1015,1015,1016,1016,1016,1016,1017,1017,1017,1016,1016,1016,1016,1015,1015,1015,1015,1015,1015,1014,1015,1015,1015,1015,1015,1016,1016,1016,1016,1016,1016,1016,1016,1016,1016,1016,1016,1016,1016,1016,1016,1016,1017,1017,1017,1016,1016,1016,1016,1015,1014,1013,1012,1012,1013,1012,1012,1012,1011,1011,1011,1011,1010,1010,1009,1009,1008,1008,1008,1007,1007,1007,1007,1007,1006,1006,1005,1004,1004,1004,1004,1003,1003,1003,1002,1002,1001,1001,1000,1000,999,999,999,998,998,997,997,996,997,996,996,996,996,997,997,996,996,995,995,995,994,993,993,992,992,992,991,991,991,992,2047,2047,2047,974,974,974,973,973,973,973,972,2047,2047,2047,2047,2047,2047,2047,2047,2047,2047,2047,2047,2047,2047,2047,2047,2047,2047,2047,2047,2047,2047,2047,2047,2047,2047,2047,2047,2047,2047,2047,2047,2047,2047,2047,2047,2047,2047,2047,2047,2047,2047,2047,2047,2047,2047,2047,2047,2047,2047,2047,2047,2047,2047,2047,2047,2047,2047,2047,2047,2047,2047
998,998,998,998,998,998,998,998,998,999,998,999,999,998,999,998,998,998,999,998,999,999,999,999,999,999,998,999,999,999,999,999,999,999,999,999,999,999,999,999,999,999,999,999,999,999,999,999,998,998,999,999,999,999,999,999,999,999,998,998,998,998,998,998,998,998,999,999,999,999,999,999,999,999,999,999,999,999,999,999,999,1000,999,999,999,998,998,998,999,998,999,999,999,999,999,999,999,999,999,1000,1000,999,1000,1000,1001,1001,1001,1001,1001,1002,1001,1001,1000,1000,1000,1000,1000,1000,1000,1000,1000,1001,1001,1002,1002,1002,1002,1003,1004,1004,1005,1006,1007,1007,1007,1007,1007,1007,1007,1008,1008,1009,1010,1011,1011,1012,1012,1012,1013,1013,1014,1014,1014,1014,1014,1014,1014,1014,1014,2047,1043,1043,1041,1041,1043,1044,1044,1044,1044,1044,1044,1043,1043,1043,1043,1042,1042,1042,1042,1043,1043,1043,1042,1042,1041,1042,1042,1041,1042,1042,1042,1043,1043,2047,2047,2047,2047,2047,1043,1043,1043,1043,1043,1043,1044,1043,1043,1043,1042,1042,1042,1043,1041,1042,1041,1041,1041,1041,1041,1041,1042,1042,1042,1042,1042,1042,1042,1041,1041,1041,1041,1041,1040,1041,1041,1041,1041,1042,1042,1042,1041,1041,1041,1041,1041,1041,1040,1040,1041,1041,1041,1042,1042,1042,2047,1044,2047,1041,1041,1041,1041,1040,1041,1040,1039,1039,1039,1038,1038,1039,1039,1039,1040,1039,1039,1040,1039,1038,1038,1038,1039,1039,1038,1039,1040,1040,1040,1039,1037,1038,1038,1038,1038,1038,1038,1041,1041,1041,1040,1041,1041,1041,1041,1040,1039,1039,1039,1039,1039,1039,1039,1039,1039,1040,1041,1042,1041,1041,1042,1042,1041,1041,1041,1040,1041,1040,1038,1037,1037,1037,1036,1037,1037,1037,1037,1038,1038,1038,1038,1037,1038,1038,1039,1038,1038,1036,2047,2047,2047,2047,1037,1036,1035,1038,1038,1038,1038,1037,1037,1038,1039,1039,1039,1038,1038,1038,1039,1039,1039,1039,1039,1039,1040,1040,1041,1041,1041,1041,1041,1041,1041,1041,1041,1041,1040,1040,1039,1039,1036,1034,1034,1041,1040,1041,2047,2047,2047,2047,2047,2047,2047,2047,1016,1015,1013,1013,1014,1013,1013,1013,1013,1013,1014,1014,1014,1014,1014,1014,1014,1014,1014,1014,1014,1013,1014,1014,1013,1013,1013,1013,1013,1013,1013,1014,1014,1014,1014,1014,1015,1015,1015,1015,1014,1015,1015,1015,1015,1015,1015,1016,1016,1016,1016,1017,1017,1016,1016,1016,1016,1015,1015,1014,1015,1014,1014,1015,1014,1015,1015,1015,1016,1016,1016,1016,1016,1016,1016,1016,1016,1016,1016,1016,1015,1016,1016,1016,1016,1016,1016,1017,1017,1017,1016,1016,1016,1016,1015,1014,1013,1012,1012,1013,1012,1012,1011,1011,1011,1011,1011,1010,1009,1009,1008,1008,1008,1008,1007,1007,1007,1007,1007,1006,1006,1005,1004,1004,1004,1003,1003,1003,1002,1002,1002,1001,1000,1000,999,999,999,998,998,998,997,997,997,997,997,996,996,996,996,996,996,996,995,995,995,994,993,993,992,992,991,991,991,991,991,2047,2047,2047,2047,974,974,972,972,2047,2047,2047,2047,2047,2047,2047,2047,2047,2047,2047,2047,2047,2047,2047,2047,2047,2047,2047,2047,2047,2047,2047,2047,2047,2047,2047,2047,2047,2047,2047,2047,2047,2047,2047,2047,2047,2047,2047,2047,2047,2047,2047,2047,2047,2047,2047,2047,2047,2047,2047,2047,2047,2047,2047,2047,2047,2047,2047,2047,2047,2047,2047,2047,2047
998,998,997,998,998,998,998,998,998,998,998,998,998,998,999,998,998,998,999,999,998,999,999,999,999,999,998,999,999,999,999,999,999,999,999,999,999,999,999,999,999,999,999,999,999,999,999,999,999,999,999,999,999,999,999,999,998,998,998,997,998,998,998,998,999,999,999,999,999,999,999,999,999,999,999,999,999,999,999,999,999,999,999,999,999,998,998,999,998,998,999,999,999,999,999,999,999,999,999,999,999,999,1000,1000,1001,1001,1001,1001,1001,1002,1001,1001,1000,1000,1000,1000,1000,1000,1000,1000,1000,1000,1001,1001,1002,1002,1002,1004,1004,1005,1006,1006,1007,1007,1007,1007,1007,1007,1007,1008,1008,1009,1010,1011,1012,1012,1013,1013,1013,1014,1014,1014,1015,1014,1014,1014,1014,1014,1014,1042,1043,1043,1043,1043,1044,1044,1044,1044,1044,1044,1044,1044,1043,1043,1043,1043,1043,1042,1043,1044,1044,1043,1044,1043,1042,1043,1042,1042,1042,1043,1042,1042,1044,2047,2047,1042,2047,2047,1043,1043,1043,1043,1044,1044,1044,1043,1043,1042,1042,1042,1041,1042,1041,1041,1041,1041,1041,1041,1041,1041,1041,1041,1041,1041,1042,1041,1041,1041,1041,1041,1041,1040,1040,1041,1041,1041,1041,1041,1041,1042,1041,1041,1041,1041,1041,1040,1040,1040,1040,1039,1039,1042,1042,1042,1044,1044,1044,1041,1041,1040,1040,1040,1040,1039,1039,1039,1038,1038,1038,1038,1038,1040,1040,1040,1040,1040,1039,1039,1039,1039,1039,1039,1039,1040,1040,1040,1040,1039,1037,1038,1037,1037,1038,1038,1038,1041,1041,1041,1041,1041,1041,1041,1041,1039,1039,1039,1039,1039,1039,1039,1040,1039,1039,1039,1039,2047,1042,1042,1042,1042,1041,1041,1041,1040,1040,1040,1038,1038,1037,1037,1037,1037,1037,1037,1037,1037,1037,1038,1038,1037,1039,1039,1040,1040,1040,2047,2047,2047,2047,2047,2047,2047,2047,1041,1038,1039,1039,1038,1038,1039,1039,1039,1039,1038,1038,1038,1038,1038,1038,1038,1038,1039,1040,1040,1041,1041,1041,1041,1041,1041,1041,1041,1041,1040,1040,1040,1040,1037,1036,1036,1034,1039,1040,1040,2047,2047,2047,2047,2047,2047,2047,2047,1016,1016,1014,1013,1014,1014,1013,1013,1013,1013,1013,1013,1013,1013,1013,1013,1013,1014,1014,1014,1014,1013,1013,1014,1013,1013,1013,1013,1013,1013,1014,1014,1015,1015,1014,1015,1015,1015,1015,1015,1015,1015,1015,1015,1015,1015,1015,1016,1016,1016,1016,1016,1016,1016,1015,1015,1015,1015,1014,1014,1014,1014,1014,1014,1014,1014,1014,1015,1015,1016,1016,1016,1017,1016,1017,1016,1016,1016,1016,1015,1015,1016,1016,1016,1016,1016,1016,1017,1017,1016,1016,1016,1016,1016,1014,1013,1012,1011,1012,1012,1012,1012,1011,1012,1011,1012,1011,1010,1010,1009,1008,1008,1008,1008,1007,1007,1007,1007,1006,1006,1005,1005,1004,1004,1004,1004,1003,1003,1002,1002,1002,1001,1000,1000,1000,999,999,998,998,998,997,997,997,997,997,996,996,997,996,996,996,996,995,995,994,993,993,993,992,992,992,991,991,991,991,2047,2047,2047,2047,2047,2047,2047,2047,2047,2047,2047,2047,2047,2047,2047,2047,2047,2047,2047,2047,2047,2047,2047,2047,2047,2047,2047,2047,2047,2047,2047,2047,2047,2047,2047,2047,2047,2047,2047,2047,2047,2047,2047,2047,2047,2047,2047,2047,2047,2047,2047,2047,2047,2047,2047,2047,2047,2047,2047,2047,2047,2047,2047,2047,2047,2047,2047,2047,2047,2047,2047,2047,2047
998,998,997,998,998,998,998,998,998,998,998,998,998,998,999,998,998,998,998,999,998,999,999,998,998,998,998,998,998,998,998,998,999,999,999,999,999,999,998,999,999,999,999,999,999,999,999,999,998,998,998,999,999,999,998,998,998,998,998,997,998,998,998,998,999,999,999,999,999,999,999,999,999,999,999,999,999,999,999,999,999,999,999,999,998,998,998,998,998,998,999,999,999,999,999,999,999,999,999,999,1000,999,1000,1001,1001,1001,1001,1001,1001,1002,1001,1000,1000,1000,1000,999,999,999,1000,1000,1000,1000,1000,1001,1001,1002,1002,1004,1005,1005,1006,1006,1006,1006,1007,1007,1007,1007,1008,1009,1009,1010,1011,1012,1012,1012,1013,1012,1013,1013,1014,1014,1015,1014,1014,1015,1014,1013,1013,1042,1042,1043,1043,1043,1044,1044,1044,1044,1045,1044,1044,1044,1043,1044,1043,1043,1043,1043,1043,1044,1044,1044,1044,1044,1043,1044,1043,1043,1042,1042,1042,1042,1045,1042,1042,1042,1042,2047,1043,1043,1044,1044,1044,1044,1044,1043,1043,1042,1042,1042,1042,1042,1042,1041,1041,1041,1041,1041,1041,1041,1041,1041,1041,1041,1041,1041,1041,1041,1040,1041,1041,1041,1041,1041,1041,1041,1041,1042,1041,1042,1041,1041,1041,1041,1041,1040,1040,1038,1038,1038,1039,1039,1037,1040,1044,1040,1040,1041,1041,1041,1041,1039,1040,1039,1038,1038,1038,1038,1038,1038,1038,1038,1040,1040,1040,1040,1040,1039,1040,1040,1040,1039,1040,1040,1040,1040,1039,1039,1036,1037,1037,1037,1037,1037,1037,1040,1040,1040,1040,1040,1040,1040,1038,1039,1038,1039,1039,1039,1039,1040,1040,1041,1040,1040,1040,2047,2047,1041,2047,2047,1041,1040,1040,1040,1040,1040,1038,1037,1037,1037,1036,1037,1037,1037,1037,1036,1037,1038,1038,1038,1039,1039,1040,1040,2047,2047,2047,2047,2047,2047,2047,2047,2047,2047,1039,1040,1040,1039,1039,1040,1039,1039,1040,1039,1038,1039,1039,1039,1038,1038,1038,1039,1040,1040,1040,1040,1041,1042,1041,1041,1041,1040,1041,1040,1040,1039,1037,1037,1036,1036,1035,1039,1039,1040,1041,2047,2047,2047,2047,2047,2047,2047,1016,1016,1014,1014,1014,1014,1013,1013,1013,1013,1013,1013,1013,1013,1013,1013,1013,1014,1014,1014,1014,1014,1014,1014,1013,1013,1013,1013,1013,1013,1014,1014,1015,1015,1015,1015,1015,1016,1015,1015,1015,1016,1016,1015,1015,1015,1016,1016,1016,1016,1016,1016,1016,1016,1015,1015,1016,1015,1015,1015,1015,1014,1014,1014,1014,1014,1014,1014,1015,1015,1016,1016,1017,1016,1017,1016,1016,1016,1016,1015,1015,1015,1016,1015,1015,1016,1016,1016,1016,1016,1015,1015,1015,1013,1012,1012,1012,1011,1012,1012,1012,1012,1012,1012,1011,1012,1011,1010,1010,1009,1008,1008,1008,1007,1007,1007,1007,1007,1006,1006,1006,1005,1005,1004,1004,1004,1004,1003,1002,1002,1002,1001,1000,1000,1000,999,999,999,998,999,998,997,997,997,997,997,996,996,996,997,996,996,995,995,994,994,993,993,992,992,992,992,992,991,992,991,2047,2047,2047,2047,2047,2047,2047,2047,2047,2047,2047,2047,2047,2047,2047,2047,2047,2047,2047,2047,2047,2047,2047,2047,2047,2047,2047,2047,2047,2047,2047,2047,2047,2047,2047,2047,2047,2047,2047,2047,2047,2047,2047,2047,2047,2047,2047,2047,2047,2047,2047,2047,2047,2047,2047,2047,2047,2047,2047,2047,2047,2047,2047,2047,2047,2047,2047,2047,2047,2047,2047,2047
998,998,997,998,998,998,998,998,998,998,999,999,999,999,999,999,998,998,999,999,999,999,999,999,999,999,998,998,998,998,998,999,999,999,999,999,999,999,999,999,999,999,999,999,999,998,998,998,998,998,998,999,999,999,998,999,999,998,998,997,998,998,998,998,998,999,999,999,998,998,999,999,999,999,999,999,999,999,999,999,999,999,998,998,998,998,998,998,998,998,999,999,999,999,999,999,999,999,999,999,1000,999,1000,1000,1001,1001,1001,1001,1001,1001,1000,1000,1000,1000,1000,999,999,999,1000,1000,1000,1000,1000,1001,1001,1002,1002,1004,1005,1005,1006,1006,1006,1006,1007,1007,1007,1007,1008,1008,1010,1010,1010,1012,1012,1012,1013,1013,1013,1014,1014,1014,1015,1015,1015,1015,1015,1015,1041,1041,1041,1042,1042,1043,1044,1044,1044,1044,1045,1045,1044,1044,1044,1044,1044,1044,1044,1043,1044,1044,1044,1043,1044,1044,1043,1044,1043,1042,1042,1044,1042,1042,1045,1045,1045,1045,1045,1045,1045,1045,1045,1045,1045,1044,1044,1044,1043,1043,1042,1042,1042,1042,1042,1042,1041,1041,1041,1041,1041,1041,1041,1041,1041,1041,1041,1041,1041,1041,1041,1041,1041,1041,1040,1041,1041,1041,1041,1041,1041,1041,1041,1041,1041,1041,1041,1040,1040,1040,1040,1040,1040,1040,1040,1040,1040,1040,1040,1040,1040,1040,1040,1039,1039,1038,1038,1038,1038,1038,1038,1038,1037,1038,1038,1038,1040,1040,1040,1039,1040,1040,1040,1040,1040,1040,1041,1041,1040,1040,1040,1037,1037,1037,1037,1037,1037,1040,1040,1040,1040,1040,1040,1040,1038,1039,1039,1039,1039,1039,1040,1040,1041,1041,1040,1041,1041,2047,2047,2047,2047,2047,1041,1040,1040,1038,1038,1039,1038,1038,1037,1037,1037,1037,1037,1037,1037,1037,1037,1037,1037,1039,1039,1039,1040,1041,2047,2047,2047,2047,2047,2047,2047,2047,2047,2047,1040,1040,1040,1040,1040,1040,1040,1040,1040,1040,1040,1040,1040,1040,1040,1040,1039,1039,1040,1040,1040,1041,1042,1042,1041,1041,1041,1040,1041,1040,1039,1038,1037,1037,1037,1037,1037,1038,1039,1041,1041,1041,2047,2047,2047,2047,2047,2047,1015,1014,1013,1013,1014,1014,1014,1014,1013,1012,1012,1013,1013,1013,1013,1013,1013,1014,1014,1014,1014,1014,1013,1014,1013,1013,1013,1013,1013,1014,1014,1014,1015,1015,1015,1015,1015,1015,1015,1015,1015,1016,1016,1015,1015,1015,1015,1016,1016,1016,1016,1016,1016,1016,1015,1015,1015,1015,1015,1015,1015,1015,1015,1014,1014,1014,1014,1015,1015,1016,1016,1016,1017,1016,1017,1017,1016,1016,1016,1015,1015,1015,1016,1015,1015,1015,1015,1016,1016,1015,1015,1015,1015,1013,1012,1012,1012,1012,1012,1012,1012,1012,1012,1011,1011,1011,1011,1010,1010,1009,1008,1008,1008,1008,1008,1007,1007,1007,1006,1005,1005,1004,1004,1004,1004,1004,1004,1003,1003,1003,1002,1002,1001,1001,1000,1000,999,999,998,998,998,998,997,997,997,996,996,996,996,996,996,996,996,995,995,994,993,993,993,992,992,992,992,992,992,992,2047,2047,2047,2047,2047,2047,2047,2047,2047,2047,2047,2047,2047,2047,2047,2047,2047,2047,2047,2047,2047,2047,2047,2047,2047,2047,2047,2047,2047,2047,2047,2047,2047,2047,2047,2047,2047,2047,2047,2047,2047,2047,2047,2047,2047,2047,2047,2047,2047,2047,2047,2047,2047,2047,2047,2047,2047,2047,2047,2047,2047,2047,2047,2047,2047,2047,2047,2047,2047,2047,2047,2047
2047,999,998,998,998,998,998,998,998,998,998,998,998,999,999,999,998,998,999,999,999,999,999,999,999,999,999,999,999,998,998,999,999,999,999,999,999,999,999,999,999,999,999,999,999,998,998,998,998,998,998,998,999,999,998,999,999,998,998,998,998,998,999,998,998,999,999,999,998,998,998,999,999,999,999,999,999,999,999,999,999,999,999,998,998,998,998,999,999,998,999,999,999,999,999,999,999,999,999,999,999,999,1000,1000,1000,1001,1000,1001,1001,1001,1000,1000,1000,1000,1000,1000,999,999,1000,1000,1000,1000,1000,1001,1001,1002,1002,1004,1004,1004,1006,1006,1006,1006,1007,1007,1007,1007,1008,1008,1010,1010,1010,1012,1011,1012,1012,1012,1013,1013,1014,1015,1016,1015,1015,1016,1016,1041,1041,1041,1041,1042,1042,1043,1043,1043,1044,1045,1045,1045,1045,1045,1044,1045,1044,1044,1045,1044,1045,1044,1044,1044,1045,1044,1044,1044,1044,1044,1045,1045,1042,1045,1046,1045,1045,1045,1045,1045,1045,1044,1044,1045,1045,1044,1044,1044,1044,1043,1043,1042,1042,1042,1042,1042,1041,1041,1041,1041,1041,1041,1041,1041,1041,1041,1041,1041,1041,1041,1039,1040,1040,1040,1040,1041,1041,1041,1041,1041,1041,1041,1041,1041,1041,1041,1040,1040,1040,1040,1040,1040,1040,1040,1040,1041,1041,1040,1040,1040,1040,1040,1040,1039,1039,1039,1038,1038,1037,1037,1037,1037,1037,1038,1038,1038,1040,1040,1040,1039,1040,1040,1040,1040,1040,1040,1041,1041,1040,1039,1037,1038,1037,1037,1037,1037,1037,1037,1040,1040,1040,1040,1040,1039,1038,1038,1038,1039,1039,1040,1041,1041,1041,1041,1041,1041,1041,2047,2047,2047,2047,2047,1040,1039,1039,1038,1038,1039,1039,1038,1038,1037,1037,1038,1038,1038,1037,1040,1039,1039,1040,1039,1039,1040,1040,1040,2047,2047,2047,2047,2047,2047,2047,2047,2047,2047,2047,2047,1040,1039,1040,1040,1040,1040,1040,1040,1040,1040,1040,1040,1040,1040,1040,1040,1040,1040,1040,1041,1042,1042,1042,1041,1040,1039,1040,1039,1038,1037,1037,1037,1037,1037,1037,1037,1038,1042,2047,2047,2047,2047,2047,2047,2047,2047,1014,1014,1013,1013,1013,1013,1013,1013,1012,1012,1012,1013,1013,1013,1013,1014,1014,1014,1014,1014,1014,1014,1013,1013,1013,1013,1013,1013,1013,1014,1014,1014,1015,1015,1015,1015,1015,1015,1015,1016,1016,1016,1016,1015,1015,1015,1016,1016,1016,1016,1016,1016,1016,1016,1016,1016,1015,1015,1015,1015,1015,1015,1015,1015,1015,1014,1014,1014,1014,1015,1015,1016,1017,1016,1017,1017,1017,1016,1016,1015,1015,1015,1015,1015,1014,1015,1015,1015,1015,1015,1014,1014,1014,1013,1012,1012,1012,1011,1011,1012,1012,1012,1011,1011,1011,1011,1011,1010,1009,1009,1008,1008,1007,1007,1007,1007,1006,1006,1005,1005,1005,1004,1004,1004,1004,1004,1004,1003,1003,1003,1002,1002,1001,1001,1000,1000,999,999,998,999,998,998,997,997,996,996,996,996,996,996,996,996,995,995,994,994,993,993,992,992,992,992,992,992,992,992,2047,2047,2047,2047,2047,2047,2047,2047,2047,2047,2047,2047,2047,2047,2047,2047,2047,2047,2047,2047,2047,2047,2047,2047,2047,2047,2047,2047,2047,2047,2047,2047,2047,2047,2047,2047,2047,2047,2047,2047,2047,2047,2047,2047,2047,2047,2047,2047,2047,2047,2047,2047,2047,2047,2047,2047,2047,2047,2047,2047,2047,2047,2047,2047,2047,2047,2047,2047,2047,2047,2047,2047
2047,998,998,998,998,998,998,998,998,998,998,998,998,998,999,999,998,998,998,999,999,999,999,999,999,999,999,998,998,998,998,998,999,999,999,999,999,999,999,999,999,999,999,999,999,998,998,998,998,998,998,999,999,999,999,999,999,998,998,998,998,998,998,998,998,999,999,999,999,999,999,999,999,999,999,999,999,999,999,999,999,999,999,998,999,999,999,999,999,999,999,999,999,999,999,999,999,999,999,999,999,999,999,999,1000,1000,1000,1000,1001,1000,1000,1000,1000,1000,1000,1000,999,999,1000,1000,1000,1000,1000,1001,1001,1002,1002,1004,1004,1004,1005,1006,1006,1006,1006,1007,1007,1007,1008,1009,1010,1010,1011,1011,1011,1012,1012,1012,1013,1014,1014,1016,1017,1016,1016,1017,1016,1016,1041,1041,1041,1042,1042,1043,1043,1044,1044,1045,1045,1045,1045,1045,1045,1045,1045,1045,1045,1044,1045,1044,1045,1044,1045,1045,1044,1044,1044,1044,1044,1044,1042,1042,1045,1045,1044,1044,1044,1045,1044,1044,1044,1044,1045,1045,1044,1044,1042,1042,1041,1041,1042,1041,1041,1041,1041,1041,1041,1041,1041,1041,1041,1041,1040,1041,1041,1041,1041,1040,1038,1039,1040,1040,1040,1040,1041,1041,1041,1041,1041,1041,1040,1041,1040,1040,1040,1040,1039,1039,1040,1040,1040,1040,1040,1041,1041,1041,1041,1040,1041,1040,1040,1039,1039,1039,1038,1037,1037,1037,1037,1038,1037,1038,1038,1038,1038,1041,1040,1040,1040,1040,1040,1040,1040,1040,1040,1040,1040,1039,1039,1037,1037,1037,1037,1037,1037,1037,1040,1040,1040,1040,1038,1038,1038,1038,1037,1038,1039,1039,1040,1040,1041,1041,1039,1041,1040,2047,2047,2047,2047,2047,1041,1040,1039,1039,1039,1039,1039,1039,1038,1038,1038,1039,1039,1038,1040,1040,1040,1040,1040,1040,1039,1040,1040,1040,2047,2047,2047,2047,2047,2047,2047,2047,2047,2047,2047,2047,2047,2047,1039,1040,1039,1039,1040,2047,2047,1040,1040,1040,2047,1038,1038,1038,1040,1039,1038,1040,1042,1042,1041,1041,1039,1038,1039,1039,1037,1036,1036,1036,1036,1037,1036,1037,1038,1040,1040,2047,2047,2047,2047,2047,2047,2047,1014,1014,1013,1013,1013,1013,1013,1013,1012,1012,1013,1013,1013,1013,1013,1014,1013,1013,1014,1014,1014,1013,1013,1013,1013,1013,1013,1013,1013,1014,1014,1014,1015,1015,1015,1015,1015,1015,1015,1015,1015,1016,1016,1015,1015,1014,1015,1016,1016,1016,1016,1016,1016,1016,1016,1016,1015,1015,1015,1015,1015,1015,1015,1015,1015,1014,1014,1014,1014,1015,1015,1016,1016,1016,1016,1017,1016,1016,1016,1015,1015,1015,1015,1014,1014,1014,1015,1015,1015,1015,1014,1014,1014,1013,1012,1012,1012,1011,1011,1011,1011,1012,1011,1011,1011,1011,1010,1010,1009,1008,1008,1008,1007,1007,1007,1007,1006,1006,1006,1005,1005,1004,1004,1004,1004,1003,1004,1003,1003,1003,1002,1002,1001,1001,1000,1000,999,999,999,999,999,998,997,997,997,996,996,996,996,996,996,995,995,995,994,994,993,992,992,992,992,992,992,2047,2047,2047,2047,2047,2047,2047,2047,2047,2047,2047,2047,2047,2047,2047,2047,2047,2047,2047,2047,2047,2047,2047,2047,2047,2047,2047,2047,2047,2047,2047,2047,2047,2047,2047,2047,2047,2047,2047,2047,2047,2047,2047,2047,2047,2047,2047,2047,2047,2047,2047,2047,2047,2047,2047,2047,2047,2047,2047,2047,2047,2047,2047,2047,2047,2047,2047,2047,2047,2047,2047,2047,2047,2047,2047
998,998,997,998,998,997,997,998,998,998,998,998,998,998,998,998,998,998,998,999,999,999,999,999,999,998,998,998,998,998,998,998,998,998,999,999,999,999,999,999,999,999,999,999,999,998,998,998,998,998,998,999,999,999,999,999,999,998,998,998,998,998,998,998,998,999,999,999,999,999,999,999,999,999,999,999,999,999,998,998,998,998,999,998,999,999,999,999,999,999,999,999,999,999,999,999,999,999,999,999,999,999,999,999,999,1000,1000,1000,1000,1000,1000,1000,1000,1000,1000,999,999,999,999,999,999,999,999,1000,1001,1002,1002,1003,1003,1004,1005,1005,1006,1006,1006,1007,1007,1007,1008,1009,1010,1010,1011,1011,1011,1012,1012,1012,1012,1014,1015,1016,1017,1016,1016,1017,1016,1016,1042,1041,1042,1043,1043,1044,1044,1044,1045,1045,1045,1045,1045,1045,1044,1045,1044,1044,1044,1044,1044,1044,1045,1045,1045,1045,1045,1045,1045,1044,1044,1044,1042,1042,1044,1044,1044,1045,1044,1045,1044,1044,1044,1044,1045,1045,1044,1044,1045,1045,1044,1043,1042,1042,1042,1041,1041,1041,1041,1040,1041,1041,1041,1040,1040,1040,1040,1040,1041,1038,1038,1039,1041,1040,1040,1040,1040,1041,1041,1041,1041,1041,1040,1040,1040,1040,1039,1039,1039,1039,1040,1040,1040,1040,1041,1041,1041,1041,1041,1041,1041,1040,1040,1039,1039,1038,1037,1037,1037,1037,1037,1037,1037,1038,1038,1038,1038,1041,1041,1040,1041,1040,1040,1039,1040,1041,1040,1040,1039,1038,1038,1038,1036,1036,1036,1037,1037,1037,1037,1037,1040,1038,1038,1038,1037,1038,1038,1038,1038,1038,1039,1040,1040,1040,1039,1040,1038,1038,1038,2047,2047,2047,2047,2047,2047,1038,1038,1039,1039,1038,1038,1038,1038,1038,1039,1040,1040,1041,1040,1040,1041,1040,1040,1040,1040,2047,2047,2047,2047,2047,2047,2047,2047,2047,2047,2047,2047,2047,2047,2047,2047,1039,1039,2047,2047,2047,2047,2047,2047,2047,2047,2047,1037,1037,1037,1039,1039,1041,1043,1042,1041,1041,1039,1038,1039,1038,1038,1037,1037,1036,1036,1036,1036,1036,1037,1040,1039,2047,2047,2047,2047,2047,2047,2047,1014,1014,1013,1012,1012,1012,1013,1013,1013,1012,1013,1013,1013,1013,1013,1013,1013,1013,1014,1014,1014,1014,1014,1014,1014,1014,1013,1014,1014,1014,1014,1014,1014,1015,1015,1015,1015,1015,1015,1015,1015,1015,1015,1015,1015,1014,1015,1015,1015,1015,1016,1016,1016,1016,1015,1016,1015,1015,1015,1015,1015,1015,1015,1015,1014,1014,1014,1015,1014,1015,1015,1016,1016,1016,1016,1016,1016,1016,1015,1014,1014,1014,1014,1014,1014,1014,1015,1015,1015,1015,1014,1014,1014,1013,1012,1012,1012,1011,1011,1011,1011,1011,1011,1011,1011,1010,1010,1009,1009,1008,1008,1008,1007,1007,1007,1007,1006,1006,1005,1005,1004,1004,1004,1004,1004,1004,1003,1003,1003,1003,1002,1002,1001,1001,1000,1000,999,999,999,999,999,998,997,997,997,996,996,996,996,995,995,995,995,995,994,994,993,993,992,992,992,2047,2047,2047,2047,2047,2047,2047,2047,2047,2047,2047,2047,2047,2047,2047,2047,2047,2047,2047,2047,2047,2047,2047,2047,2047,2047,2047,2047,2047,2047,2047,2047,2047,2047,2047,2047,2047,2047,2047,2047,2047,2047,2047,2047,2047,2047,2047,2047,2047,2047,2047,2047,2047,2047,2047,2047,2047,2047,2047,2047,2047,2047,2047,2047,2047,2047,2047,2047,2047,2047,2047,2047,2047,2047,2047,2047,2047
997,997,997,998,998,997,998,998,998,998,998,998,998,998,998,998,998,998,998,998,998,998,999,998,998,998,998,998,998,998,998,998,998,998,998,999,999,999,999,999,999,999,999,999,999,998,998,998,998,998,998,998,999,999,999,999,999,999,999,998,998,998,998,998,998,999,999,999,999,999,999,999,999,999,999,999,999,999,998,998,998,998,999,999,999,999,999,999,999,999,999,999,999,999,999,999,999,999,998,998,998,999,999,999,999,999,999,999,1000,999,999,999,999,1000,1000,1000,999,999,999,999,999,999,999,999,1000,1001,1002,1003,1003,1003,1004,1005,1005,1006,1006,1007,1007,1008,1008,1010,1011,1011,1011,1012,1011,1012,1012,1012,1012,1015,1016,1016,1017,1017,1017,1017,1017,2047,2047,1044,1042,1044,1044,1045,1044,1044,1045,1044,1045,1044,1044,1044,1044,1045,1044,1045,1045,1045,1045,1045,1045,1045,1045,1045,1045,1045,1045,1045,1045,1045,1044,1044,1044,1044,1044,1045,1044,1045,1045,1044,1044,1044,1045,1045,1045,1045,1045,1045,1044,1043,1042,1041,1041,1041,1041,1040,1041,1040,1040,1041,1041,1041,1040,1038,1040,1038,1038,1038,1038,1038,1040,1040,1039,1040,1040,1041,1040,1040,1040,1040,1040,1040,1040,1039,1039,1039,1039,1039,1040,1040,1040,1040,1041,1041,1041,1041,1041,1041,1041,1040,1039,1038,1038,1038,1037,1037,1037,1037,1037,1037,1037,1038,1038,1038,1038,1041,1041,1040,1040,1040,1039,1039,1039,1041,1039,1039,1039,1038,1038,1037,1037,1036,1036,1036,1036,1036,1037,1037,1038,1038,1038,1037,1037,1037,1037,1038,1038,1038,1039,1039,1039,1040,1039,1039,1038,1038,1038,2047,2047,2047,2047,2047,2047,2047,1038,1039,1039,1038,1038,1038,1039,1039,1040,1040,1041,1041,1040,1041,1041,1041,1040,1040,1040,1040,1040,1040,1040,1038,2047,2047,2047,2047,2047,2047,2047,2047,2047,2047,1038,1038,1038,1038,2047,2047,2047,2047,2047,2047,2047,2047,1037,1037,1037,1037,1037,1042,1042,1041,1040,1040,1038,1038,1037,1037,1037,1037,1037,1036,1036,1036,1036,1036,1037,1038,2047,2047,2047,2047,2047,2047,2047,1015,1014,1014,1013,1012,1012,1012,1013,1013,1013,1013,1013,1013,1013,1013,1013,1013,1013,1013,1013,1014,1014,1014,1014,1014,1014,1014,1014,1014,1014,1014,1014,1014,1014,1014,1014,1014,1015,1015,1015,1015,1015,1014,1014,1014,1014,1014,1015,1015,1015,1015,1015,1015,1015,1015,1015,1015,1015,1015,1015,1015,1015,1015,1015,1015,1015,1014,1014,1015,1014,1014,1015,1016,1016,1016,1016,1016,1016,1016,1015,1014,1014,1014,1014,1014,1014,1014,1015,1015,1015,1015,1015,1014,1014,1013,1012,1012,1012,1012,1011,1011,1011,1012,1011,1011,1011,1010,1010,1009,1008,1008,1008,1008,1007,1007,1007,1007,1006,1006,1005,1005,1005,1004,1004,1004,1004,1004,1004,1003,1003,1003,1003,1002,1001,1001,1000,1000,999,999,999,999,998,998,998,998,997,996,996,995,995,995,995,995,994,995,994,993,993,992,2047,992,2047,2047,2047,2047,2047,2047,2047,2047,2047,2047,2047,2047,2047,2047,2047,2047,2047,2047,2047,2047,2047,2047,2047,2047,2047,2047,2047,2047,2047,2047,2047,2047,2047,2047,2047,2047,2047,2047,2047,2047,2047,2047,2047,2047,2047,2047,2047,2047,2047,2047,2047,2047,2047,2047,2047,2047,2047,2047,2047,2047,2047,2047,2047,2047,2047,2047,2047,2047,2047,2047,2047,2047,2047,2047,2047,2047,2047,2047
995,996,996,997,998,997,997,998,998,998,998,998,998,998,998,998,998,998,998,998,998,998,998,998,998,998,998,998,998,998,998,998,998,998,998,999,998,999,999,999,999,999,999,999,999,998,998,998,998,998,998,999,999,999,999,999,999,999,998,998,998,998,998,998,998,999,999,999,999,999,999,999,999,999,999,999,998,998,998,998,998,998,998,999,999,999,999,999,999,999,999,999,999,999,999,999,998,998,998,1000,1000,1000,1000,999,999,999,999,1000,1000,1000,999,1000,1000,1000,1000,1000,999,999,999,999,999,999,999,999,1000,1001,1002,1003,1003,1004,1004,1005,1005,1006,1006,1007,1007,1008,1009,1010,1010,1010,1011,1011,1011,1012,1012,1013,1013,1015,1016,1016,1017,1017,1017,1017,1017,2047,2047,2047,1044,1045,1044,1045,1044,1044,1045,1045,1045,1044,1044,1044,1044,1045,1044,1045,1045,1045,1045,1044,1045,1045,1045,1045,1045,1045,1045,1045,1045,1045,1045,1044,1045,1044,1044,1045,1044,1044,1044,1044,1044,1044,1045,1045,1045,1045,1045,1045,1044,1043,1042,1041,1041,1041,1041,1040,1041,1040,1040,1041,1041,1041,1040,1041,1041,1038,1038,1038,1038,1038,1038,1039,1039,1039,1039,1041,1040,1040,1040,1040,1039,1039,1040,1039,1039,1039,1039,1039,1040,1040,1040,1040,1041,1041,1041,1041,1041,1041,1041,1040,1040,1038,1038,1038,1038,1037,1037,1037,1037,1037,1037,1038,1038,1038,1038,1038,1038,1040,1040,1040,1039,1039,1039,1039,1039,1040,1039,1039,1038,1038,1038,1036,1036,1036,1036,1036,1037,1037,1037,1037,1037,1037,1037,1037,1037,1037,1037,1038,1038,1038,1039,1039,1038,1039,1038,1038,1038,2047,2047,2047,2047,2047,2047,1037,1037,1038,1038,1038,1038,1038,1039,1039,1040,1040,1040,1041,1040,1040,1041,1041,1040,1040,1040,1040,1040,1040,1040,2047,2047,2047,2047,2047,2047,2047,2047,2047,2047,1038,1037,1037,1037,1038,1038,2047,2047,2047,2047,2047,2047,1037,1037,1037,1037,1037,1037,1037,1038,1038,1038,1039,1039,1037,1037,1037,1037,1037,1037,1037,1036,1037,1037,1037,1037,1038,2047,2047,2047,2047,2047,2047,1015,1014,1013,1013,1013,1012,1012,1012,1013,1013,1013,1013,1013,1013,1013,1013,1013,1013,1013,1014,1014,1014,1015,1015,1015,1014,1015,1015,1014,1014,1014,1014,1014,1013,1014,1014,1014,1014,1014,1014,1014,1014,1014,1014,1014,1014,1014,1014,1015,1015,1014,1015,1015,1015,1015,1015,1015,1015,1015,1015,1015,1015,1015,1015,1015,1014,1014,1014,1014,1015,1014,1014,1014,1015,1016,1016,1016,1016,1016,1015,1015,1014,1014,1013,1013,1013,1014,1014,1015,1015,1015,1015,1015,1015,1014,1014,1012,1012,1012,1012,1011,1011,1011,1012,1011,1011,1011,1010,1010,1010,1009,1008,1008,1008,1007,1007,1007,1007,1006,1006,1006,1005,1004,1004,1004,1004,1004,1004,1004,1003,1003,1003,1003,1003,1002,1001,1000,1000,1000,1000,999,999,999,998,998,998,998,996,996,996,995,995,995,995,994,995,994,994,2047,2047,2047,2047,2047,2047,2047,2047,2047,2047,2047,2047,2047,2047,2047,2047,2047,2047,2047,2047,2047,2047,2047,2047,2047,2047,2047,2047,2047,2047,2047,2047,2047,2047,2047,2047,2047,2047,2047,2047,2047,2047,2047,2047,2047,2047,2047,2047,2047,2047,2047,2047,2047,2047,2047,2047,2047,2047,2047,2047,2047,2047,2047,2047,2047,2047,2047,2047,2047,2047,2047,2047,2047,2047,2047,2047,2047,2047,2047,2047,2047,2047
995,995,995,996,998,997,997,997,997,998,998,998,998,998,998,998,998,998,998,997,998,998,998,998,998,998,998,998,998,998,998,998,998,998,998,999,998,999,998,999,998,999,999,998,999,998,998,998,998,998,998,999,999,999,999,999,999,999,999,998,998,998,998,998,998,998,999,999,999,999,999,999,999,999,999,999,998,998,998,998,998,998,999,999,999,999,999,999,999,999,999,999,999,999,999,999,999,998,998,1000,1000,1000,999,999,999,999,999,1000,1000,1000,999,1000,1000,1000,1000,999,999,999,999,999,999,999,999,999,1000,1001,1002,1003,1003,1003,1004,1006,1005,1005,1006,1006,1007,1008,1009,1010,1010,1010,1011,1011,1011,1011,1012,1013,1013,1014,1015,1015,1017,1017,2047,2047,2047,2047,2047,2047,2047,1045,1044,1044,1044,1044,1044,1044,1044,1044,1044,1044,1044,1045,1044,1045,1045,1045,1045,1044,1044,1044,1045,1045,1045,1045,1045,1045,1045,1045,1045,1044,1045,1044,1045,1045,1045,1045,1045,1044,1044,1045,1045,1045,1045,1045,1045,1045,1044,1043,1042,1041,1041,1041,1041,1041,1041,1041,1040,1041,1041,1041,1041,1041,1041,1041,1041,1040,1040,1040,1041,1041,1039,1040,1039,1041,1040,1040,1040,1039,1039,1038,1039,1039,1039,1039,1039,1039,1040,1040,1040,1040,1041,1041,1040,1041,1041,1041,1041,1040,1040,1039,1039,1038,1038,1038,1037,1037,1037,1037,1037,1038,1038,1038,1038,1038,1038,1038,1040,1040,1039,1039,1039,1039,1039,1039,1039,1039,1038,1038,1038,1038,1036,1036,1036,1035,1036,1036,1036,1037,1037,1037,1037,1037,1037,1037,1037,1037,1038,1038,1038,1038,1038,1039,1038,1037,1037,1037,2047,2047,2047,2047,2047,2047,1037,1038,1038,1038,1039,2047,2047,2047,1039,2047,2047,2047,1040,1040,1041,1041,1040,1040,1040,1040,1040,1040,1040,1037,2047,2047,2047,2047,2047,2047,2047,2047,2047,1038,1037,1037,1037,1038,1038,2047,2047,2047,2047,2047,2047,1038,1038,1038,1038,1037,1037,1037,1038,1038,1038,1038,1038,1037,1036,1037,1037,1037,1037,1036,1036,1036,1037,1037,1037,1038,1038,2047,2047,2047,2047,2047,1015,1014,1014,1013,1012,1012,1012,1012,1012,1013,1013,1013,1013,1014,1014,1013,1013,1014,1014,1014,1014,1015,1015,1015,1015,1015,1015,1015,1015,1015,1015,1014,1014,1014,1014,1014,1014,1014,1014,1014,1014,1014,1014,1014,1014,1014,1014,1014,1014,1014,1014,1015,1015,1015,1015,1015,1015,1015,1015,1015,1015,1015,1014,1014,1014,1014,1014,1014,1014,1014,1014,1014,1014,1015,1016,1016,1016,1016,1016,1015,1015,1014,1014,1014,1014,1014,1014,1015,1015,1015,1015,1015,1015,1015,1015,1014,1013,1012,1012,1012,1011,1011,1011,1011,1011,1011,1010,1010,1010,1009,1008,1008,1007,1007,1007,1008,1007,1007,1006,1006,1006,1005,1004,1004,1004,1004,1004,1003,1003,1003,1003,1003,1003,1002,1001,1001,1000,1000,1000,1000,999,999,999,998,998,999,998,997,996,996,996,995,995,995,995,995,995,2047,2047,2047,2047,2047,2047,2047,2047,2047,2047,2047,2047,2047,2047,2047,2047,2047,2047,2047,2047,2047,2047,2047,2047,2047,2047,2047,2047,2047,2047,2047,2047,2047,2047,2047,2047,2047,2047,2047,2047,2047,2047,2047,2047,2047,2047,2047,2047,2047,2047,2047,2047,2047,2047,2047,2047,2047,2047,2047,2047,2047,2047,2047,2047,2047,2047,2047,2047,2047,2047,2047,2047,2047,2047,2047,2047,2047,2047,2047,2047,2047,2047,2047
995,995,995,996,995,995,996,998,997,997,997,998,998,998,998,998,998,998,998,998,998,998,998,997,998,998,998,998,998,997,997,998,998,998,998,998,998,999,999,999,999,999,999,998,999,999,999,998,998,998,998,999,999,999,999,999,999,999,999,999,999,999,999,998,998,998,999,999,999,999,999,999,999,999,999,999,998,998,998,998,998,998,998,998,999,999,999,999,999,999,999,999,999,999,999,999,999,998,998,999,999,999,999,998,998,998,999,999,1000,1000,1000,1000,1001,1001,1001,1000,999,999,999,999,999,999,999,999,1000,1002,1002,1003,1003,1003,1004,1005,1006,1005,1006,1007,1007,1008,1009,1009,1010,1010,1011,1011,1010,1011,1012,1013,1013,1014,1015,1015,1016,1016,2047,2047,2047,2047,2047,2047,1045,2047,1045,1045,1045,1045,1044,1044,1044,1044,1044,1044,1044,1045,1044,1045,1045,1045,1044,1044,1044,1044,1044,1045,1045,1045,1045,1045,1045,1045,1045,1044,1045,1045,1045,1045,1045,1045,1045,1045,1045,1045,1045,1045,1045,1045,1045,1045,1044,1043,1042,1041,1041,1041,1041,1040,1040,1041,1040,1041,1041,1041,1041,1041,1041,1041,1041,1040,1040,1040,1041,1041,1039,1040,1039,1040,1038,1038,1038,1039,1038,1038,1039,1039,1039,1039,1039,1039,1040,1040,1040,1040,1041,1041,1040,1040,1040,1040,1041,1040,1039,1038,1039,1038,1038,1038,1037,1037,1037,1037,1037,1038,1038,1038,1038,1038,1038,1038,1040,1040,1039,1039,1039,1039,1039,1040,1040,1039,1039,1039,1039,1037,1037,1038,1036,1036,1036,1036,1036,1036,1036,1036,1036,1037,1036,1037,1037,1037,1037,1037,1037,1037,1038,1038,1037,1037,1037,1037,2047,2047,2047,2047,2047,2047,1037,1039,1039,1038,1039,2047,2047,2047,2047,2047,2047,2047,1037,1037,1040,1040,1037,2047,1040,1040,2047,2047,1039,1037,2047,2047,2047,2047,2047,2047,2047,2047,2047,1038,1037,1037,1038,1039,1039,2047,2047,2047,2047,2047,2047,1038,1038,1037,1037,1037,1037,1037,1038,1038,1039,1039,1039,1038,1037,1037,1037,1037,1037,1036,1036,1036,1037,1037,1037,1038,1038,2047,2047,2047,2047,1014,1014,1014,1014,1013,1012,1012,1012,1012,1012,1012,1012,1012,1013,1013,1013,1013,1013,1014,1014,1014,1014,1015,1015,1015,1015,1015,1015,1016,1016,1016,1015,1015,1014,1014,1014,1014,1013,1013,1014,1013,1014,1014,1014,1014,1014,1013,1013,1014,1014,1014,1014,1014,1014,1015,1015,1015,1015,1015,1015,1015,1014,1014,1014,1014,1014,1014,1013,1014,1014,1015,1014,1014,1015,1015,1016,1016,1016,1016,1015,1015,1015,1014,1014,1014,1014,1014,1014,1015,1015,1016,1015,1016,1015,1015,1015,1014,1013,1013,1012,1012,1012,1011,1011,1011,1011,1011,1010,1010,1010,1009,1008,1008,1008,1008,1008,1008,1007,1007,1006,1006,1006,1005,1004,1004,1004,1003,1004,1003,1003,1003,1003,1002,1002,1002,1001,1001,1000,1000,999,999,999,998,998,998,998,998,998,997,997,996,996,995,995,995,994,995,2047,2047,2047,2047,2047,2047,2047,2047,2047,2047,2047,2047,2047,2047,2047,2047,2047,2047,2047,2047,2047,2047,2047,2047,2047,2047,2047,2047,2047,2047,2047,2047,2047,2047,2047,2047,2047,2047,2047,2047,2047,2047,2047,2047,2047,2047,2047,2047,2047,2047,2047,2047,2047,2047,2047,2047,2047,2047,2047,2047,2047,2047,2047,2047,2047,2047,2047,2047,2047,2047,2047,2047,2047,2047,2047,2047,2047,2047,2047,2047,2047,2047,2047,2047
